-4.906478524208068848e-01 7.881073653697967529e-02 1.015522927045822144e-01
1.237400770187377930e-01 -1.000561714172363281e+00 -5.864258408546447754e-01
-3.652176856994628906e-01 3.553315997123718262e-01 1.135726794600486755e-01
-3.428288921713829041e-02 -1.365811824798583984e-01 -4.193136468529701233e-02
2.551168799400329590e-01 -4.857668876647949219e-01 -2.017091214656829834e-01
2.357937246561050415e-01 -4.816771745681762695e-01 -1.958612799644470215e-01
-8.263833820819854736e-02 -8.345715999603271484e-01 -3.924705982208251953e-01
-1.358733922243118286e-01 -2.438635528087615967e-01 -8.780407905578613281e-02
-2.230995893478393555e-01 4.449688270688056946e-02 5.184364691376686096e-02
6.760424971580505371e-01 -3.818074166774749756e-01 -3.250145018100738525e-01
-4.387536942958831787e-01 3.197965323925018311e-01 1.175711005926132202e-01
3.180239796638488770e-01 -6.149904131889343262e-01 -2.819178998470306396e-01
-6.930716633796691895e-01 3.243482112884521484e-01 1.499430090188980103e-01
5.548983812332153320e-01 -2.731738686561584473e-01 -2.269448935985565186e-01
-2.360238730907440186e-01 2.483454197645187378e-01 8.121283352375030518e-02
-7.833843827247619629e-01 4.314810931682586670e-01 1.704049855470657349e-01
-2.991041243076324463e-01 1.506608352065086365e-02 6.474174559116363525e-02
-2.007774710655212402e-01 8.241571485996246338e-02 5.113105848431587219e-02
2.993407547473907471e-01 -2.862412631511688232e-01 -1.371256709098815918e-01
1.605775207281112671e-01 1.607429832220077515e-01 5.603801086544990540e-02
-3.415848314762115479e-02 -9.409530758857727051e-01 -4.956039786338806152e-01
-2.627397775650024414e-01 6.933201849460601807e-02 6.142840534448623657e-02
-3.084228001534938812e-02 -3.424336761236190796e-02 -1.276775542646646500e-02
3.178460597991943359e-01 3.815939724445343018e-01 1.124436110258102417e-01
-4.186549484729766846e-01 2.291996031999588013e-01 1.037796139717102051e-01
9.178931266069412231e-02 -2.764970362186431885e-01 -9.305523335933685303e-02
-3.377732262015342712e-02 -4.719196856021881104e-01 -1.680220663547515869e-01
6.165120750665664673e-02 -3.438443541526794434e-01 -1.155000701546669006e-01
4.108957052230834961e-01 -2.343047559261322021e-01 -1.584874689579010010e-01
1.347391679883003235e-02 1.667703315615653992e-02 5.797384772449731827e-03
1.655789278447628021e-02 -1.337161213159561157e-01 -4.012426361441612244e-02
7.832825183868408203e-01 6.604600548744201660e-01 1.940165609121322632e-01
5.329224467277526855e-01 5.011626482009887695e-01 1.517189741134643555e-01
-8.234125375747680664e-02 1.448640692979097366e-02 2.016897313296794891e-02
-6.010322272777557373e-02 -1.036576405167579651e-01 -3.486721590161323547e-02
3.545086681842803955e-01 -2.401328831911087036e-01 -1.407250463962554932e-01
1.131052337586879730e-02 3.400076925754547119e-02 9.858755394816398621e-03
-2.946940958499908447e-01 6.760434806346893311e-02 6.719145178794860840e-02
1.934817731380462646e-01 -6.395814418792724609e-01 -2.690830230712890625e-01
-1.545461565256118774e-01 -2.013578414916992188e-01 -7.804042845964431763e-02
-3.078687191009521484e-01 6.101180333644151688e-03 6.600282341241836548e-02
1.483701914548873901e-01 -1.763378381729125977e-01 -6.978359818458557129e-02
4.064352214336395264e-01 -6.801550388336181641e-01 -3.497965633869171143e-01
4.496808350086212158e-02 -5.377801656723022461e-01 -1.996811777353286743e-01
4.953367169946432114e-03 -1.239953096956014633e-02 -3.739341860637068748e-03
-4.949453286826610565e-03 -8.348888158798217773e-02 -2.436286397278308868e-02
-6.121999025344848633e-01 1.547675132751464844e-01 1.250575184822082520e-01
-7.465928047895431519e-02 6.240586563944816589e-02 2.501326799392700195e-02
2.134652286767959595e-01 -3.559914231300354004e-01 -1.402246356010437012e-01
5.721805691719055176e-01 -4.565978050231933594e-01 -2.991532683372497559e-01
2.576491236686706543e-01 -8.076683282852172852e-01 -3.986515104770660400e-01
1.752842217683792114e-01 -9.926938414573669434e-01 -5.856962800025939941e-01
2.865969836711883545e-01 -5.087839961051940918e-01 -2.194195687770843506e-01
-2.077306658029556274e-01 -3.521178662776947021e-01 -1.376764327287673950e-01
1.970031298696994781e-02 -7.744263112545013428e-02 -2.315196581184864044e-02
6.330786347389221191e-01 -4.302809834480285645e-01 -3.197443485260009766e-01
-4.405282065272331238e-02 -2.215070724487304688e-01 -7.009228318929672241e-02
-4.007435217499732971e-02 -2.998678684234619141e-01 -9.768301248550415039e-02
-3.826592862606048584e-01 1.918882876634597778e-01 9.419963508844375610e-02
-6.789248436689376831e-02 7.221765071153640747e-02 2.578003890812397003e-02
-4.584347307682037354e-01 3.406077027320861816e-01 1.226859018206596375e-01
-4.442646503448486328e-01 3.675553947687149048e-02 9.158593416213989258e-02
6.350522488355636597e-02 -2.040684968233108521e-01 -6.573047488927841187e-02
-3.388097137212753296e-02 5.566549953073263168e-03 8.451174944639205933e-03
-4.821475148200988770e-01 1.352098584175109863e-01 1.042037159204483032e-01
1.969143152236938477e-01 -3.964169025421142578e-01 -1.526002287864685059e-01
-2.153047025203704834e-01 1.040313020348548889e-02 4.820193350315093994e-02
3.497412204742431641e-01 -3.567153811454772949e-01 -1.745762079954147339e-01
-3.114898204803466797e-01 2.785339951515197754e-01 9.559505432844161987e-02
-5.165258049964904785e-01 3.887110054492950439e-01 1.356622725725173950e-01
-4.466457068920135498e-01 3.759123980998992920e-01 1.258912384510040283e-01
-6.343254446983337402e-01 4.322859346866607666e-01 1.541351526975631714e-01
2.019999548792839050e-02 -4.667095094919204712e-02 -1.445127092301845551e-02
2.253207564353942871e-01 -2.451903969049453735e-01 -1.059432923793792725e-01
-2.616158127784729004e-01 2.080316990613937378e-01 7.821884751319885254e-02
4.444677755236625671e-02 -2.811385691165924072e-02 -1.420243270695209503e-02
-2.332565486431121826e-01 -5.453498363494873047e-01 -2.254562228918075562e-01
2.849081456661224365e-01 -5.853545665740966797e-01 -2.572348117828369141e-01
1.431349664926528931e-01 -3.733578920364379883e-01 -1.351125687360763550e-01
2.726677060127258301e-01 2.998816072940826416e-01 9.420780837535858154e-02
-1.962211430072784424e-01 -2.684961259365081787e-01 -1.066936701536178589e-01
1.354783028364181519e-01 -2.883743047714233398e-01 -1.026710495352745056e-01
-7.617379426956176758e-01 4.650261402130126953e-01 1.713708341121673584e-01
1.423423290252685547e-01 1.751953661441802979e-01 5.627292022109031677e-02
1.402571350336074829e-01 -2.014043182134628296e-01 -7.539701461791992188e-02
-3.971838653087615967e-01 8.968724310398101807e-02 8.690922707319259644e-02
-7.458105683326721191e-01 6.048158407211303711e-01 1.845621913671493530e-01
1.170989423990249634e-01 -2.562513947486877441e-01 -8.912201970815658569e-02
-6.824088096618652344e-02 5.292329564690589905e-02 2.220783382654190063e-02
3.166878223419189453e-01 3.916994929313659668e-01 1.139501184225082397e-01
2.222252488136291504e-01 -2.588435411453247070e-01 -1.093132123351097107e-01
6.974070668220520020e-01 -6.781060695648193359e-01 -5.174869894981384277e-01
-1.980249769985675812e-02 5.662005767226219177e-02 1.633133366703987122e-02
-1.205255463719367981e-01 6.302426103502511978e-03 2.811608836054801941e-02
-1.836698688566684723e-02 -9.571302533149719238e-01 -5.147683620452880859e-01
1.008419021964073181e-01 -1.658772975206375122e-01 -5.840477347373962402e-02
2.041655033826828003e-02 -1.189614087343215942e-02 -6.271611433476209641e-03
8.241284638643264771e-02 -2.098557502031326294e-01 -6.952804327011108398e-02
2.409813702106475830e-01 2.354652732610702515e-01 7.970712333917617798e-02
3.759578242897987366e-02 -3.974594771862030029e-01 -1.358276754617691040e-01
7.494409680366516113e-01 -4.347747564315795898e-01 -3.962487876415252686e-01
-5.917668342590332031e-01 4.449189305305480957e-01 1.509047746658325195e-01
2.680336236953735352e-01 -8.400401473045349121e-01 -4.298420846462249756e-01
-5.444738864898681641e-01 2.233531884849071503e-02 1.071614474058151245e-01
2.711885869503021240e-01 -3.511944711208343506e-01 -1.512367278337478638e-01
8.979377150535583496e-02 1.057104766368865967e-01 3.567982837557792664e-02
6.204220056533813477e-01 5.783130526542663574e-01 1.698723286390304565e-01
-3.658742457628250122e-02 -2.265779227018356323e-01 -7.141406089067459106e-02
7.960231602191925049e-02 -2.077450603246688843e-01 -6.853362917900085449e-02
1.229163706302642822e-01 -6.155990362167358398e-01 -2.460583001375198364e-01
-1.599109023809432983e-01 -3.057692050933837891e-01 -1.125098541378974915e-01
-6.493443995714187622e-02 -3.184961080551147461e-01 -1.060432195663452148e-01
-6.370960474014282227e-01 3.239372372627258301e-01 1.430340856313705444e-01
2.573731355369091034e-02 -3.518571332097053528e-02 -1.216880325227975845e-02
1.758688390254974365e-01 2.244145423173904419e-01 6.964968144893646240e-02
4.690730944275856018e-02 -6.325896829366683960e-02 -2.231483720242977142e-02
-2.925321273505687714e-02 -3.897472843527793884e-02 -1.362007576972246170e-02
1.415366232395172119e-01 -1.461388617753982544e-01 -6.042952090501785278e-02
-3.200083076953887939e-01 6.128809414803981781e-03 6.826572865247726440e-02
-5.341353416442871094e-01 4.244013130664825439e-01 1.420811265707015991e-01
3.742969632148742676e-01 -5.572367310523986816e-01 -2.672896683216094971e-01
5.356873571872711182e-02 -3.293626904487609863e-01 -1.094522923231124878e-01
1.494919657707214355e-01 -6.849107146263122559e-01 -2.901047170162200928e-01
3.446069732308387756e-02 6.494724005460739136e-02 1.974424347281455994e-02
-3.633999824523925781e-01 2.866781353950500488e-01 1.034798920154571533e-01
2.850467711687088013e-02 -7.008801698684692383e-01 -2.910549342632293701e-01
-5.825906991958618164e-02 -7.511461526155471802e-02 -2.708632126450538635e-02
3.693870082497596741e-02 -4.149820655584335327e-02 -1.546434313058853149e-02
-4.276894330978393555e-01 3.240749239921569824e-02 8.857144415378570557e-02
-4.838331341743469238e-01 2.716871798038482666e-01 1.176985576748847961e-01
2.872082591056823730e-02 -2.098828852176666260e-01 -6.538295745849609375e-02
6.688290834426879883e-01 -5.255993604660034180e-01 -3.874073028564453125e-01
-4.500942528247833252e-01 8.921376615762710571e-02 9.566982090473175049e-02
2.213337272405624390e-01 -8.612105250358581543e-02 -6.852406263351440430e-02
1.084534451365470886e-01 -7.936627417802810669e-02 -3.797691687941551208e-02
2.602694630622863770e-01 2.888421118259429932e-01 9.093158692121505737e-02
1.415584608912467957e-02 -1.566737294197082520e-01 -4.735451564192771912e-02
1.627832502126693726e-01 -2.304512411355972290e-01 -8.826132118701934814e-02
-8.683505654335021973e-01 7.068919539451599121e-01 2.061959207057952881e-01
5.511906147003173828e-01 -3.022115826606750488e-01 -2.333765625953674316e-01
-1.563830971717834473e-01 2.973314374685287476e-02 3.725878149271011353e-02
-8.418963849544525146e-02 -9.613950252532958984e-01 -5.244789123535156250e-01
-5.893182381987571716e-02 4.335423186421394348e-02 1.886243000626564026e-02
1.794914156198501587e-01 1.815175116062164307e-01 6.233454868197441101e-02
2.252232432365417480e-01 -2.837886810302734375e-01 -1.177843287587165833e-01
3.384439051151275635e-01 3.814542591571807861e-01 1.145814582705497742e-01
8.894991129636764526e-02 1.145774424076080322e-01 3.736917674541473389e-02
-1.340756714344024658e-01 -9.002737998962402344e-01 -4.601437747478485107e-01
3.421173691749572754e-01 -6.562936902046203613e-01 -3.131232857704162598e-01
-1.328345537185668945e-01 -3.325120210647583008e-01 -1.181664764881134033e-01
3.825720399618148804e-02 -3.178577423095703125e-01 -1.043399199843406677e-01
-7.808338850736618042e-02 1.139307245612144470e-01 3.585815802216529846e-02
1.224436983466148376e-01 -3.373702988028526306e-02 -3.421457856893539429e-02
4.277465641498565674e-01 -2.261053472757339478e-01 -1.626689732074737549e-01
-2.343455255031585693e-01 -5.832298398017883301e-01 -2.451158910989761353e-01
-6.724452376365661621e-01 2.093598842620849609e-01 1.374678015708923340e-01
4.635932147502899170e-01 -9.951077401638031006e-02 -1.536140590906143188e-01
-8.335088193416595459e-02 -1.157651767134666443e-01 -4.165813326835632324e-02
-3.148200735449790955e-02 5.558764189481735229e-02 1.719113998115062714e-02
5.697820186614990234e-01 -7.741864323616027832e-01 -5.090292096138000488e-01
-2.880000770092010498e-01 9.407280385494232178e-02 6.827214360237121582e-02
1.324193924665451050e-01 -4.533548951148986816e-01 -1.669341921806335449e-01
3.469616472721099854e-01 3.299200534820556641e-01 1.076686456799507141e-01
3.529638946056365967e-01 -5.851561427116394043e-01 -2.753946185111999512e-01
5.428321957588195801e-01 -6.655001640319824219e-01 -4.009978473186492920e-01
4.852836430072784424e-01 4.810705780982971191e-01 1.442756652832031250e-01
1.035040542483329773e-01 -3.789439201354980469e-01 -1.326942294836044312e-01
1.197178885340690613e-01 -2.667891085147857666e-01 -9.303891658782958984e-02
-2.038611322641372681e-01 2.039815038442611694e-01 6.952486932277679443e-02
2.649389803409576416e-01 -1.978385001420974731e-01 -1.032986789941787720e-01
-4.308408200740814209e-01 3.595070540904998779e-01 1.218319907784461975e-01
-2.124844342470169067e-01 5.350783839821815491e-02 5.049370601773262024e-02
-6.998527646064758301e-01 5.599982738494873047e-01 1.752422749996185303e-01
-5.706769824028015137e-01 5.182572603225708008e-01 1.576552242040634155e-01
4.474740922451019287e-01 4.044965505599975586e-01 1.298498958349227905e-01
1.027038916945457458e-01 -7.163975834846496582e-01 -3.053725063800811768e-01
2.657614052295684814e-01 -6.933574676513671875e-01 -3.163475692272186279e-01
8.269933611154556274e-02 -3.828352689743041992e-01 -1.324143111705780029e-01
6.128483414649963379e-01 -7.296213507652282715e-01 -4.966575205326080322e-01
-2.010242454707622528e-02 2.231876365840435028e-02 8.054056204855442047e-03
3.870676755905151367e-01 -1.769781559705734253e-01 -1.372395157814025879e-01
1.065583452582359314e-01 -1.711997985839843750e-01 -6.084767729043960571e-02
1.156746670603752136e-01 -9.688574671745300293e-01 -5.384578108787536621e-01
-1.655671745538711548e-01 -8.507590889930725098e-01 -4.169212579727172852e-01
2.743932604789733887e-01 -3.985003829002380371e-01 -1.695589274168014526e-01
2.769745886325836182e-01 -2.179061919450759888e-01 -1.116927936673164368e-01
6.316705942153930664e-01 -7.582475543022155762e-01 -5.404789447784423828e-01
-2.152935564517974854e-01 -4.560714960098266602e-01 -1.806353628635406494e-01
-2.018692642450332642e-01 1.761702261865139008e-02 4.584370926022529602e-02
1.382185053080320358e-02 -5.748582258820533752e-02 -1.698249392211437225e-02
2.160219997167587280e-01 -9.015407562255859375e-01 -4.775974750518798828e-01
-5.905129313468933105e-01 3.976382911205291748e-01 1.452898532152175903e-01
-2.421417385339736938e-01 1.162734106183052063e-01 6.253799796104431152e-02
-6.332862377166748047e-01 5.825117230415344238e-01 1.715776771306991577e-01
-4.891143143177032471e-01 3.943068981170654297e-01 1.332033425569534302e-01
5.747691988945007324e-01 -3.769441246986389160e-01 -2.687559723854064941e-01
-9.117591381072998047e-01 5.930507183074951172e-01 1.986626237630844116e-01
-3.691376149654388428e-01 2.002617418766021729e-01 9.311654418706893921e-02
-9.501016885042190552e-02 1.449054032564163208e-01 4.444976523518562317e-02
-1.582314819097518921e-02 -1.365353167057037354e-01 -4.098713770508766174e-02
6.489823460578918457e-01 -6.699988842010498047e-01 -4.712051451206207275e-01
-4.992947354912757874e-02 2.655777521431446075e-02 1.442495081573724747e-02
2.960270643234252930e-02 -3.439530497416853905e-03 -7.501605898141860962e-03
-1.693669110536575317e-01 -7.910138368606567383e-01 -3.671779930591583252e-01
-4.152274131774902344e-02 2.684331685304641724e-02 1.278411038219928741e-02
-5.369420051574707031e-01 3.689236342906951904e-01 1.356789469718933105e-01
1.625482589006423950e-01 -3.183411657810211182e-01 -1.173904314637184143e-01
-1.276998817920684814e-01 -2.727747559547424316e-01 -9.618479013442993164e-02
4.936664402484893799e-01 -6.799535751342773438e-01 -3.863478004932403564e-01
-5.438347458839416504e-01 1.606657356023788452e-01 1.155789494514465332e-01
-2.101791352033615112e-01 1.882076859474182129e-01 6.775806099176406860e-02
2.744419276714324951e-01 -9.252957701683044434e-01 -5.224511027336120605e-01
-8.753072023391723633e-01 6.153669953346252441e-01 1.975074559450149536e-01
-3.120715618133544922e-01 6.336925178766250610e-02 7.004304230213165283e-02
7.165583968162536621e-02 -1.808760911226272583e-01 -5.910235643386840820e-02
-2.427059262990951538e-01 2.178383246064186096e-02 5.422807112336158752e-02
-7.297044396400451660e-01 5.043245553970336914e-01 1.721022874116897583e-01
6.019426137208938599e-02 -1.166689321398735046e-01 -3.851954638957977295e-02
6.463549733161926270e-01 -2.313807159662246704e-01 -2.620666623115539551e-01
-6.432619690895080566e-02 1.196751967072486877e-01 3.558481857180595398e-02
1.133269742131233215e-01 -1.040939465165138245e-01 -4.438754171133041382e-02
-6.957786679267883301e-01 4.648611545562744141e-01 1.643599569797515869e-01
-1.010448187589645386e-01 -1.547506749629974365e-01 -5.523745715618133545e-02
2.495210319757461548e-01 -3.464277088642120361e-01 -1.444326192140579224e-01
1.124911662191152573e-02 -1.303887665271759033e-01 -3.892442211508750916e-02
5.484572146087884903e-03 -3.063918948173522949e-01 -9.924664348363876343e-02
-1.428890377283096313e-01 4.305262584239244461e-03 3.286784887313842773e-02
-5.919868499040603638e-02 -5.977958440780639648e-01 -2.314220815896987915e-01
3.533267378807067871e-01 3.576382994651794434e-01 1.125618740916252136e-01
4.621914923191070557e-01 -6.083871722221374512e-01 -3.267777264118194580e-01
2.049182802438735962e-01 2.826591730117797852e-01 8.364312350749969482e-02
6.121335029602050781e-01 5.293549299240112305e-01 1.631171256303787231e-01
-6.317974328994750977e-01 2.046952396631240845e-01 1.316037774085998535e-01
-5.196920633316040039e-01 4.264604151248931885e-01 1.407402604818344116e-01
-5.813201069831848145e-01 -5.943494848906993866e-03 1.117731258273124695e-01
5.494017004966735840e-01 -4.944016933441162109e-01 -3.053054511547088623e-01
4.344858229160308838e-01 -9.290550351142883301e-01 -6.099748611450195312e-01
5.941186547279357910e-01 -7.833480834960937500e-01 -5.370468497276306152e-01
8.160816505551338196e-03 -3.686305284500122070e-01 -1.234170272946357727e-01
4.579825401306152344e-01 4.813205823302268982e-02 -1.428225338459014893e-01
9.412135481834411621e-01 1.145702227950096130e-01 -4.465905427932739258e-01
9.542706012725830078e-01 3.515681028366088867e-01 -1.282663345336914062e+00
-1.103603005409240723e+00 2.811927795410156250e-01 -8.784601688385009766e-01
9.354943037033081055e-01 1.524304300546646118e-01 -4.462476074695587158e-01
-1.660915613174438477e-01 -1.544496417045593262e-02 3.746454790234565735e-02
-1.036726355552673340e+00 1.784929335117340088e-01 -5.815666913986206055e-01
-1.009313344955444336e+00 1.415169239044189453e-01 -5.315655469894409180e-01
9.734334796667098999e-02 1.000275649130344391e-02 -2.481049858033657074e-02
-6.341844201087951660e-01 5.647524073719978333e-02 -2.229415029287338257e-01
-6.988725662231445312e-01 4.251464903354644775e-01 -1.504813790321350098e+00
9.859348535537719727e-01 1.590592116117477417e-01 -5.043931603431701660e-01
-8.488792181015014648e-01 3.958274722099304199e-01 -1.389219045639038086e+00
-4.143413305282592773e-01 4.715326428413391113e-01 -1.633084535598754883e+00
-9.704970121383666992e-01 1.307589709758758545e-01 -4.808318614959716797e-01
-9.734668731689453125e-01 3.753934502601623535e-01 -1.238991975784301758e+00
9.670368432998657227e-01 3.553996682167053223e-01 -1.261362433433532715e+00
-3.960242271423339844e-01 3.112408518791198730e-02 -1.184817254543304443e-01
1.070721626281738281e+00 3.569168448448181152e-01 -1.007470965385437012e+00
1.094951033592224121e+00 2.738530635833740234e-01 -7.821644544601440430e-01
4.378004968166351318e-01 5.511946603655815125e-02 -1.352062523365020752e-01
-3.522201478481292725e-01 -2.553636021912097931e-02 7.348907738924026489e-02
-2.895357012748718262e-01 -1.425513159483671188e-02 6.186317279934883118e-02
8.171291351318359375e-01 1.193634420633316040e-01 -3.396534025669097900e-01
1.054546594619750977e+00 2.332715541124343872e-01 -6.340001821517944336e-01
-4.913486242294311523e-01 -2.247390896081924438e-02 9.708462655544281006e-02
-5.831985473632812500e-01 4.985371232032775879e-02 -1.973953694105148315e-01
6.775384545326232910e-01 6.677947193384170532e-02 -2.466484904289245605e-01
-4.888981878757476807e-01 -2.777735516428947449e-02 9.673314541578292847e-02
9.450117945671081543e-01 1.414329260587692261e-01 -4.543666541576385498e-01
2.613656781613826752e-02 1.954026669263839722e-01 4.657485708594322205e-02
-8.041464537382125854e-02 2.675118446350097656e-01 6.416227668523788452e-02
5.821994543075561523e-01 6.910890936851501465e-01 1.658169627189636230e-01
5.806428194046020508e-01 6.899136900901794434e-01 1.663266867399215698e-01
-1.036414027214050293e+00 9.207225441932678223e-01 2.131770104169845581e-01
2.366794496774673462e-01 4.379236102104187012e-01 1.040882244706153870e-01
-1.071250796318054199e+00 9.358793497085571289e-01 2.147216349840164185e-01
5.243076682090759277e-01 -2.979451790452003479e-02 6.542906165122985840e-02
5.369399189949035645e-01 -2.400746755301952362e-02 8.985203504562377930e-02
-2.087030708789825439e-01 -2.561688721179962158e-01 -5.547886341810226440e-02
4.141190946102142334e-01 4.794101417064666748e-01 7.639038562774658203e-02
-3.699161708354949951e-01 4.509903490543365479e-01 7.163117825984954834e-02
1.081337127834558487e-02 -3.998451530933380127e-01 -7.250802963972091675e-02
1.127090528607368469e-01 1.369120776653289795e-01 2.456852234899997711e-02
6.332134604454040527e-01 3.081714808940887451e-01 7.544762641191482544e-02
2.710162401199340820e-01 2.522817254066467285e-01 4.710935801267623901e-02
-4.598078131675720215e-02 -7.026560306549072266e-01 -1.482117027044296265e-01
5.100759863853454590e-02 1.354651302099227905e-01 2.111114747822284698e-02
6.211233735084533691e-01 5.405550599098205566e-01 9.166888892650604248e-02
4.250881075859069824e-01 2.006812393665313721e-01 5.383502691984176636e-02
2.620175182819366455e-01 -6.179148554801940918e-01 -1.368414610624313354e-01
-3.599845468997955322e-01 -9.095258265733718872e-02 -5.641477182507514954e-02
7.801017910242080688e-02 7.912475615739822388e-02 1.550126820802688599e-02
-8.025825023651123047e-03 -2.117788791656494141e-01 -3.555151447653770447e-02
-4.568809568881988525e-01 -8.332617282867431641e-01 -2.289281934499740601e-01
3.692581951618194580e-01 -7.533226162195205688e-03 3.786496445536613464e-02
-1.140501648187637329e-01 2.344572097063064575e-01 3.634057566523551941e-02
3.915190398693084717e-01 2.349022924900054932e-01 5.392149090766906738e-02
6.699703633785247803e-02 4.589081928133964539e-02 1.102384366095066071e-02
-1.339569389820098877e-01 -6.594741344451904297e-02 -2.149034850299358368e-02
-1.123535819351673126e-02 -4.747782051563262939e-01 -8.904341608285903931e-02
2.023673802614212036e-01 2.301465272903442383e-01 4.052504152059555054e-02
1.509163342416286469e-02 -2.424686029553413391e-02 -4.326708149164915085e-03
-3.226509988307952881e-01 -5.023591518402099609e-01 -1.153208538889884949e-01
-7.509526330977678299e-03 -1.795541122555732727e-02 -2.989825559780001640e-03
-3.130264282226562500e-01 4.448370039463043213e-01 6.837640702724456787e-02
2.306095510721206665e-01 3.681887686252593994e-02 2.670156024396419525e-02
-5.151985287666320801e-01 -8.629207015037536621e-01 -2.514382898807525635e-01
-2.466736435890197754e-01 -2.869415283203125000e-01 -6.466772407293319702e-02
1.421611607074737549e-01 1.177742630243301392e-01 2.463928610086441040e-02
1.276570111513137817e-01 1.248376220464706421e-01 2.426639758050441742e-02
6.794613599777221680e-01 5.392292141914367676e-01 9.444262087345123291e-02
-4.370992183685302734e-01 4.579863548278808594e-01 7.560568302869796753e-02
-3.275910317897796631e-01 -5.463670492172241211e-01 -1.260551661252975464e-01
-8.635548502206802368e-02 -3.391075432300567627e-01 -6.169519945979118347e-02
-3.236086070537567139e-01 4.233508706092834473e-01 6.674964725971221924e-02
-2.035817131400108337e-02 -5.683519244194030762e-01 -1.115237027406692505e-01
2.339189052581787109e-01 -7.309365868568420410e-01 -1.661876291036605835e-01
-6.578723341226577759e-02 1.238671764731407166e-01 2.022293955087661743e-02
4.516659975051879883e-01 5.385636687278747559e-01 8.345990628004074097e-02
-4.326177537441253662e-01 -1.696196943521499634e-01 -7.607810944318771362e-02
4.979024827480316162e-01 3.573548495769500732e-01 7.056339830160140991e-02
2.060729712247848511e-01 3.438187539577484131e-01 5.302463099360466003e-02
1.987401545047760010e-01 1.669120937585830688e-01 3.383696079254150391e-02
-3.989670425653457642e-02 5.884234234690666199e-02 1.034824177622795105e-02
-2.630385756492614746e-02 5.956619232892990112e-02 9.698858484625816345e-03
-9.286743402481079102e-02 1.934896707534790039e-01 3.036008588969707489e-02
4.400467872619628906e-01 5.404020547866821289e-01 8.310355991125106812e-02
-1.684737205505371094e-01 -9.776654839515686035e-02 -2.900213375687599182e-02
-3.076891005039215088e-01 -1.965559422969818115e-01 -5.914336442947387695e-02
-2.262514978647232056e-01 2.488828301429748535e-01 4.394000023603439331e-02
-1.189021244645118713e-01 -6.075140237808227539e-01 -1.241184473037719727e-01
-9.855841100215911865e-02 -1.746091693639755249e-01 -3.256649151444435120e-02
-8.299795910716056824e-03 -1.391992717981338501e-01 -2.275330387055873871e-02
3.849256336688995361e-01 3.416848182678222656e-01 6.242872402071952820e-02
-2.210780233144760132e-01 -3.112516999244689941e-01 -6.612701714038848877e-02
1.690756082534790039e-01 1.415178477764129639e-01 2.910679951310157776e-02
-5.786763429641723633e-01 -9.342548251152038574e-01 -2.964821159839630127e-01
1.499949544668197632e-01 2.673633098602294922e-01 4.184976220130920410e-02
1.026612892746925354e-02 -4.913425743579864502e-01 -9.285705536603927612e-02
3.569501917809247971e-03 -2.650206983089447021e-01 -4.540743306279182434e-02
-2.094861865043640137e-01 -6.028041988611221313e-02 -3.102876618504524231e-02
-2.666297554969787598e-01 3.339898586273193359e-01 5.495585128664970398e-02
-1.305060386657714844e-01 2.234878093004226685e-01 3.576683625578880310e-02
-1.648039370775222778e-02 8.053032308816909790e-02 1.236311253160238266e-02
-5.385566353797912598e-01 -3.040008842945098877e-01 -1.129214540123939514e-01
2.997013032436370850e-01 1.937779486179351807e-01 4.385085776448249817e-02
1.216231435537338257e-01 -2.986453175544738770e-01 -5.569998547434806824e-02
-5.103333294391632080e-02 -1.533501874655485153e-02 -7.082668133080005646e-03
-8.552824854850769043e-01 -4.799737036228179932e-01 -2.270846217870712280e-01
4.943859577178955078e-02 -8.391671627759933472e-02 -1.517527364194393158e-02
-3.387227281928062439e-02 -1.273626387119293213e-01 -2.129358984529972076e-02
-4.611780941486358643e-01 -2.342609763145446777e-01 -8.869785815477371216e-02
-3.462249934673309326e-01 3.758974671363830566e-01 6.334251165390014648e-02
-1.297505199909210205e-01 -2.897820472717285156e-01 -5.457611754536628723e-02
1.261973381042480469e-02 -3.904045522212982178e-01 -7.051525264978408813e-02
2.874005138874053955e-01 2.879940569400787354e-01 5.157525092363357544e-02
-6.930829882621765137e-01 -7.936119437217712402e-01 -2.696286439895629883e-01
-4.475258588790893555e-01 4.754414260387420654e-01 7.767077535390853882e-02
1.154295075684785843e-02 -1.364658027887344360e-02 -2.643158892169594765e-03
-1.524995565414428711e-01 1.641288399696350098e-01 3.026040270924568176e-02
-8.645465224981307983e-02 -2.351567447185516357e-01 -4.212588444352149963e-02
6.951791048049926758e-01 5.404030084609985352e-01 9.530723094940185547e-02
5.548022314906120300e-02 1.295490413904190063e-01 2.049613185226917267e-02
1.746504306793212891e-01 1.064574271440505981e-01 2.626720257103443146e-02
4.406810402870178223e-01 3.684332966804504395e-01 6.804402172565460205e-02
4.925240576267242432e-01 3.763372078537940979e-02 5.004908144474029541e-02
4.167563617229461670e-01 3.231623470783233643e-01 6.278411298990249634e-02
3.954889625310897827e-02 1.113361269235610962e-01 1.740752346813678741e-02
7.639502286911010742e-01 4.528633952140808105e-01 9.270484000444412231e-02
3.272746130824089050e-02 -3.701708316802978516e-01 -6.649234890937805176e-02
3.603709042072296143e-01 1.249500215053558350e-01 4.360374063253402710e-02
-8.727027475833892822e-02 -6.941596418619155884e-02 -1.651672273874282837e-02
1.843373663723468781e-02 -1.322065591812133789e-01 -2.169547975063323975e-02
1.326839555986225605e-03 -1.281300932168960571e-01 -2.082862891256809235e-02
3.114257566630840302e-02 -1.353976875543594360e-01 -2.254786156117916107e-02
6.823898106813430786e-02 1.673319935798645020e-01 2.599341422319412231e-02
-1.368744671344757080e-01 -6.214120984077453613e-01 -1.286235898733139038e-01
-1.663748733699321747e-02 -1.820986345410346985e-02 -3.634494962170720100e-03
1.373398900032043457e-01 1.301486790180206299e-01 2.554835937917232513e-02
1.153174340724945068e-01 4.063851200044155121e-03 1.330999750643968582e-02
-1.785232126712799072e-01 -2.504145503044128418e-01 -5.155642330646514893e-02
-7.892460227012634277e-01 -7.140983939170837402e-01 -2.713832557201385498e-01
-1.349650770425796509e-01 -4.387302696704864502e-01 -8.470915257930755615e-02
-6.163207888603210449e-01 -5.553334951400756836e-01 -1.778284162282943726e-01
-1.649204343557357788e-01 -1.038861870765686035e+00 -2.783901095390319824e-01
8.600822091102600098e-02 -1.956858932971954346e-01 -3.524203225970268250e-02
-6.229714751243591309e-01 -1.018746733665466309e+00 -3.523662686347961426e-01
-7.772827148437500000e-02 -3.560735285282135010e-01 -6.476131826639175415e-02
1.876741796731948853e-01 -4.860063493251800537e-01 -9.855856746435165405e-02
-3.280142694711685181e-02 7.936546951532363892e-02 1.273146923631429672e-02
-3.999118134379386902e-02 -8.052022457122802734e-01 -1.800865978002548218e-01
-6.803099513053894043e-01 6.905440688133239746e-01 1.059990972280502319e-01
-9.688093326985836029e-03 -1.729783415794372559e-02 -3.010760294273495674e-03
-3.257733881473541260e-01 -2.178511470556259155e-01 -6.453663855791091919e-02
1.859329789876937866e-01 -5.869306921958923340e-01 -1.225988566875457764e-01
1.064398419111967087e-02 -1.367847919464111328e-01 -2.236176095902919769e-02
-5.684906616806983948e-02 -6.188197135925292969e-01 -1.250782310962677002e-01
-4.447425603866577148e-01 -6.105372905731201172e-01 -1.583843231201171875e-01
-5.032968521118164062e-01 -2.038987427949905396e-01 -9.287661314010620117e-02
-3.286011219024658203e-01 3.607111275196075439e-01 6.094110757112503052e-02
-1.194126307964324951e-01 -6.872140169143676758e-01 -1.459496319293975830e-01
1.693673133850097656e-01 8.001618832349777222e-02 2.358133904635906219e-02
8.824936151504516602e-01 5.743489265441894531e-01 1.067529022693634033e-01
-1.294278949499130249e-01 -2.259169332683086395e-02 -1.750896684825420380e-02
2.102337963879108429e-02 -2.993917167186737061e-01 -5.212868377566337585e-02
1.875224895775318146e-02 -8.546610176563262939e-02 -1.394206285476684570e-02
2.282363623380661011e-01 -5.979246497154235840e-01 -1.286321580410003662e-01
-7.751963287591934204e-02 -3.067572414875030518e-02 -1.145850028842687607e-02
-9.284023195505142212e-02 -1.297099292278289795e-01 -2.516939118504524231e-02
5.691337212920188904e-02 4.291226342320442200e-02 9.804224595427513123e-03
-2.737668752670288086e-01 -3.072476685047149658e-01 -7.122726738452911377e-02
7.372526526451110840e-01 5.092121958732604980e-01 9.517764300107955933e-02
3.941605985164642334e-01 2.424869090318679810e-01 5.470411479473114014e-02
2.394746392965316772e-01 -6.678839325904846191e-01 -1.483095884323120117e-01
1.304310858249664307e-01 -3.378826379776000977e-01 -6.372012197971343994e-02
5.012598633766174316e-01 1.372401863336563110e-01 5.562702193856239319e-02
-3.196652829647064209e-01 -6.227620244026184082e-01 -1.442166715860366821e-01
4.507295787334442139e-01 7.891120016574859619e-02 4.850925132632255554e-02
2.915964424610137939e-01 2.268565297126770020e-01 4.613946750760078430e-02
1.816581189632415771e-02 -1.601419299840927124e-01 -2.648526243865489960e-02
-1.067601963877677917e-01 -1.086373448371887207e+00 -2.988911867141723633e-01
2.326132804155349731e-01 3.598748147487640381e-01 5.596653372049331665e-02
4.544825553894042969e-01 3.425297439098358154e-01 6.672457605600357056e-02
1.080978102982044220e-02 -3.235109150409698486e-01 -5.679325759410858154e-02
-2.713522315025329590e-01 3.685606718063354492e-01 5.872624367475509644e-02
-3.585612177848815918e-01 -1.527221351861953735e-01 -6.181880086660385132e-02
-4.944603443145751953e-01 -3.145638406276702881e-01 -1.060632467269897461e-01
-5.367534235119819641e-02 1.369520127773284912e-01 2.141194418072700500e-02
-2.655544877052307129e-01 -4.421214759349822998e-01 -9.590794146060943604e-02
3.154363930225372314e-01 2.110142558813095093e-01 4.647099599242210388e-02
8.426584303379058838e-02 6.852202862501144409e-02 1.485242228955030441e-02
-7.200409471988677979e-02 -6.168227195739746094e-01 -1.249101758003234863e-01
-1.543482244014739990e-01 2.616730630397796631e-01 4.139115661382675171e-02
9.719750285148620605e-02 3.589931130409240723e-02 1.315071713179349899e-02
-5.827631428837776184e-02 1.467714905738830566e-01 2.289891615509986877e-02
5.208860710263252258e-02 -1.617267578840255737e-01 -2.776002697646617889e-02
1.675664633512496948e-01 6.994888186454772949e-02 2.263657562434673309e-02
-2.138458341360092163e-01 -1.116317987442016602e+00 -3.231852352619171143e-01
-1.877282112836837769e-01 2.352718412876129150e-01 4.019510746002197266e-02
2.013663798570632935e-01 3.181274607777595520e-02 2.356136962771415710e-02
-5.402066707611083984e-01 -6.216560602188110352e-01 -1.784618794918060303e-01
6.496691703796386719e-02 6.457805633544921875e-02 1.284255739301443100e-02
-1.009722203016281128e-01 2.284191101789474487e-01 3.506245836615562439e-02
-1.210708767175674438e-01 1.611343473196029663e-01 2.789949066936969757e-02
1.179007813334465027e-01 8.055673539638519287e-02 1.895873062312602997e-02
-1.475947201251983643e-01 2.469991147518157959e-01 3.936361894011497498e-02
-7.919541001319885254e-02 -1.562719047069549561e-01 -2.830700576305389404e-02
5.039865151047706604e-03 -1.164216101169586182e-01 -1.885789819061756134e-02
1.388823240995407104e-01 -1.983509212732315063e-01 -3.954119235277175903e-02
5.046526789665222168e-01 3.855749070644378662e-01 7.320329546928405762e-02
-3.175853788852691650e-01 -5.182818770408630371e-01 -1.183196827769279480e-01
3.991723954677581787e-01 4.348888695240020752e-01 7.159706205129623413e-02
1.126869991421699524e-01 -6.708418130874633789e-01 -1.410166770219802856e-01
-1.919002830982208252e-02 -2.184014767408370972e-02 -4.304231610149145126e-03
-4.642365574836730957e-01 -3.965083658695220947e-01 -1.144894286990165710e-01
8.041720986366271973e-01 7.337656617164611816e-01 1.143422871828079224e-01
5.676970481872558594e-01 1.832423210144042969e-01 6.320872157812118530e-02
4.217870533466339111e-02 -9.327767044305801392e-02 -1.616061478853225708e-02
2.244364023208618164e-01 1.448541879653930664e-01 3.378888964653015137e-02
-9.636192917823791504e-01 8.215054869651794434e-01 1.267481744289398193e-01
-1.860498078167438507e-02 -4.447605460882186890e-02 -7.481835316866636276e-03
-4.442442655563354492e-01 5.491454601287841797e-01 8.407428115606307983e-02
-3.783259093761444092e-01 -6.747188568115234375e-01 -1.658166944980621338e-01
1.487299948930740356e-01 1.041002720594406128e-01 2.384043671190738678e-02
-4.276270866394042969e-01 -3.863107562065124512e-01 -1.065413579344749451e-01
-5.250054225325584412e-02 -4.967398568987846375e-02 -1.070892158895730972e-02
-3.239972144365310669e-02 -2.391095459461212158e-01 -4.087267071008682251e-02
2.445045560598373413e-01 2.100429385900497437e-01 4.128484427928924561e-02
5.040872693061828613e-01 3.050405085086822510e-01 6.693971902132034302e-02
-6.549662351608276367e-01 -5.551555752754211426e-01 -1.868678331375122070e-01
1.901193261146545410e-01 2.344035357236862183e-01 4.024130478501319885e-02
-2.093873769044876099e-01 3.250730633735656738e-01 5.112683773040771484e-02
-1.791754364967346191e-01 -3.804784417152404785e-01 -7.549194246530532837e-02
-5.202115979045629501e-03 -1.416373159736394882e-02 -2.323040738701820374e-03
-4.754513874650001526e-02 1.071282848715782166e-01 1.715574599802494049e-02
-8.408099412918090820e-02 -2.970690131187438965e-01 -5.342274904251098633e-02
6.665136315859854221e-04 2.413704991340637207e-03 3.854123351629823446e-04
-4.813472628593444824e-01 -1.039151549339294434e+00 -3.247567117214202881e-01
2.137327939271926880e-01 2.797813713550567627e-01 4.645496979355812073e-02
7.236041426658630371e-01 5.822494626045227051e-01 9.975650906562805176e-02
-9.235005080699920654e-02 -4.179248958826065063e-02 -1.419641636312007904e-02
1.756604462862014771e-01 -4.702894687652587891e-01 -9.418223798274993896e-02
1.427399814128875732e-01 2.479887008666992188e-02 1.720762066543102264e-02
5.993844941258430481e-02 1.077217981219291687e-01 1.783283427357673645e-02
-2.628202922642230988e-02 -5.189397931098937988e-01 -9.947281330823898315e-02
3.803600370883941650e-02 -7.605732977390289307e-02 -1.328837499022483826e-02
-6.882679462432861328e-02 -2.050546556711196899e-01 -3.594900295138359070e-02
1.434042155742645264e-01 -6.768470406532287598e-01 -1.441431790590286255e-01
-3.253959864377975464e-02 -1.042892217636108398e+00 -2.747649550437927246e-01
-1.941136419773101807e-01 -4.125629067420959473e-01 -8.318432420492172241e-02
-4.597850888967514038e-02 -8.039469718933105469e-01 -1.797636598348617554e-01
-5.154021549969911575e-03 -9.400542974472045898e-01 -2.292126566171646118e-01
-2.977389395236968994e-01 -1.170092463493347168e+00 -3.669831156730651855e-01
1.389404237270355225e-01 -4.470987617969512939e-01 -8.675384521484375000e-02
-1.536793773993849754e-03 -7.527329493314027786e-03 -1.190972863696515560e-03
-1.783215552568435669e-01 -1.030274987220764160e+00 -2.752463817596435547e-01
-3.124060630798339844e-01 -1.602702289819717407e-01 -5.547692626714706421e-02
1.009587526321411133e+00 8.284064531326293945e-01 1.289495080709457397e-01
2.356611788272857666e-01 1.572031080722808838e-01 3.576826676726341248e-02
6.906226277351379395e-01 2.866014838218688965e-01 7.770170271396636963e-02
-3.776285946369171143e-01 -8.307945132255554199e-01 -2.152422070503234863e-01
2.788803279399871826e-01 1.309846490621566772e-01 3.717615082859992981e-02
-7.589110638946294785e-03 2.904388122260570526e-02 4.581063520163297653e-03
-1.005763337016105652e-01 -8.614214509725570679e-02 -1.991004869341850281e-02
2.162281796336174011e-02 2.999992668628692627e-02 5.424913950264453888e-03
-6.429308652877807617e-02 -1.127008199691772461e+00 -3.194573819637298584e-01
2.275435999035835266e-02 -5.113484263420104980e-01 -9.763318300247192383e-02
-1.522049009799957275e-01 -9.404079914093017578e-01 -2.338841557502746582e-01
-6.323919165879487991e-03 -5.362300667911767960e-03 -1.187482383102178574e-03
2.362497001886367798e-01 -6.747152805328369141e-01 -1.499482691287994385e-01
-7.460771203041076660e-01 7.250099182128906250e-01 1.113286837935447693e-01
-2.181634902954101562e-01 -5.905979871749877930e-01 -1.259354352951049805e-01
-4.994032382965087891e-01 -6.353520750999450684e-01 -1.743456572294235229e-01
-7.408226132392883301e-01 -5.971491336822509766e-01 -2.204199135303497314e-01
-8.602266758680343628e-02 -6.695624589920043945e-01 -1.396912485361099243e-01
7.405486702919006348e-02 2.942040935158729553e-02 1.027021743357181549e-02
2.511008381843566895e-01 -8.903585076332092285e-01 -2.219089865684509277e-01
1.843177229166030884e-01 6.226938962936401367e-02 2.369267679750919342e-02
8.680164217948913574e-01 6.224817633628845215e-01 1.092972010374069214e-01
-3.661670684814453125e-01 3.626550734043121338e-01 6.322064995765686035e-02
4.690330009907484055e-03 1.758306100964546204e-02 2.787421690300107002e-03
3.241759240627288818e-01 1.694108247756958008e-01 4.378535225987434387e-02
-8.318740129470825195e-02 -4.579524695873260498e-02 -1.350030209869146347e-02
-5.935180559754371643e-02 1.654608249664306641e-01 2.541936188936233521e-02
-1.894639730453491211e-01 -3.197049498558044434e-01 -6.467977911233901978e-02
-1.051564216613769531e-01 -4.905758425593376160e-02 -1.639331504702568054e-02
-1.186089292168617249e-01 1.350198090076446533e-01 2.474693395197391510e-02
2.612589485943317413e-02 6.875243782997131348e-02 1.097632944583892822e-02
-2.151018828153610229e-01 -1.827967613935470581e-01 -4.513558000326156616e-02
-2.642739377915859222e-02 -4.327361881732940674e-01 -7.974481582641601562e-02
-1.661047786474227905e-01 -9.348658323287963867e-01 -2.325015217065811157e-01
-2.579728364944458008e-01 -1.541192978620529175e-01 -4.698424786329269409e-02
2.718736827373504639e-01 -5.226908326148986816e-01 -1.143157184123992920e-01
-1.170534174889326096e-02 -5.056797266006469727e-01 -9.621855616569519043e-02
-4.286407679319381714e-02 -4.984132051467895508e-01 -9.484919160604476929e-02
1.739132255315780640e-01 -4.383110404014587402e-01 -8.707983791828155518e-02
4.490317404270172119e-01 3.717997297644615173e-02 4.645343124866485596e-02
5.994957685470581055e-01 2.243802100419998169e-01 6.789934635162353516e-02
-1.463931519538164139e-02 -2.479972131550312042e-02 -4.375648684799671173e-03
6.515462994575500488e-01 5.065139532089233398e-01 9.059318155050277710e-02
6.635631918907165527e-01 6.104300618171691895e-01 9.908255934715270996e-02
-4.997125864028930664e-01 -5.252716541290283203e-01 -1.470937579870223999e-01
-2.006542682647705078e-01 -9.113767147064208984e-01 -2.256231307983398438e-01
-3.821218013763427734e-02 -2.800292074680328369e-01 -4.867118224501609802e-02
-8.089904189109802246e-01 -4.352312684059143066e-01 -2.024472355842590332e-01
-2.053881585597991943e-01 2.580688893795013428e-01 4.366859421133995056e-02
8.001241087913513184e-01 7.514131069183349609e-01 1.154585927724838257e-01
-1.699088960886001587e-01 -1.701087206602096558e-01 -3.827487677335739136e-02
-2.196571528911590576e-01 -2.753249406814575195e-01 -5.978722870349884033e-02
-5.011267662048339844e-01 -2.018995881080627441e-01 -9.223143756389617920e-02
1.015068292617797852e+00 8.115440607070922852e-01 1.280472576618194580e-01
-1.851434446871280670e-02 -1.313092112541198730e-01 -2.154486812651157379e-02
6.628341227769851685e-02 -3.917900323867797852e-01 -7.175219804048538208e-02
-2.705557458102703094e-02 -7.521527260541915894e-02 -1.259997300803661346e-02
4.358410239219665527e-01 2.410024106502532959e-01 5.754076689481735229e-02
-1.929549574851989746e-01 -3.842857182025909424e-01 -7.734930515289306641e-02
-5.504965186119079590e-01 -7.163150310516357422e-01 -2.077448666095733643e-01
3.744007647037506104e-01 3.892880678176879883e-01 6.611897051334381104e-02
7.481797337532043457e-01 3.650136888027191162e-01 8.608622103929519653e-02
-4.081574976444244385e-01 -2.100358605384826660e-01 -7.646322250366210938e-02
-1.176082715392112732e-01 -1.349917203187942505e-01 -2.808929793536663055e-02
-7.053741067647933960e-02 -2.638866007328033447e-02 -1.026988867670297623e-02
6.223539710044860840e-01 3.703916966915130615e-01 7.903192192316055298e-02
-4.577763676643371582e-01 5.134819746017456055e-01 8.152011036872863770e-02
-8.360765874385833740e-02 -1.676350384950637817e-01 -3.042984381318092346e-02
7.296150326728820801e-01 3.994527459144592285e-01 8.725345879793167114e-02
6.962292790412902832e-01 5.273184776306152344e-01 9.439945220947265625e-02
-1.631083637475967407e-01 -2.248966842889785767e-01 -4.594599083065986633e-02
6.892096996307373047e-01 6.789825558662414551e-01 1.054812446236610413e-01
-1.613150089979171753e-01 -2.186593860387802124e-01 -4.477722570300102234e-02
-4.008478820323944092e-01 -5.007435083389282227e-01 -1.254153102636337280e-01
2.968241572380065918e-01 -6.053566336631774902e-01 -1.371267884969711304e-01
-1.908259689807891846e-01 -7.187553644180297852e-01 -1.591953933238983154e-01
3.442295789718627930e-01 -7.178513333201408386e-04 3.585042059421539307e-02
-2.883577644824981689e-01 -1.999349296092987061e-01 -5.686043947935104370e-02
-5.582046508789062500e-01 -8.308656811714172363e-01 -2.485492080450057983e-01
-1.987634301185607910e-01 -4.606108367443084717e-02 -2.849064022302627563e-02
-1.631491035223007202e-01 -3.923669829964637756e-02 -2.309970557689666748e-02
4.576472938060760498e-02 1.142327859997749329e-01 1.804044842720031738e-02
4.419474899768829346e-01 1.773038506507873535e-01 5.351471528410911560e-02
-1.930409483611583710e-02 8.047689497470855713e-02 1.242372766137123108e-02
2.435350269079208374e-01 -7.067114710807800293e-01 -1.597914099693298340e-01
5.675446614623069763e-02 -1.933151036500930786e-01 -3.337471932172775269e-02
1.759438961744308472e-01 5.993461236357688904e-02 2.272335067391395569e-02
-4.127566218376159668e-01 -2.776218652725219727e-01 -8.630839735269546509e-02
-7.326027005910873413e-02 -9.502762556076049805e-02 -1.855638995766639709e-02
2.487132698297500610e-02 -7.928349375724792480e-01 -1.758248656988143921e-01
8.547332137823104858e-02 -8.179416656494140625e-01 -1.854143589735031128e-01
5.541623234748840332e-01 3.615785539150238037e-01 7.429712265729904175e-02
3.362966775894165039e-01 3.878278434276580811e-01 6.394556909799575806e-02
-1.215933337807655334e-01 2.411814481019973755e-01 3.747969120740890503e-02
-5.279045701026916504e-01 -1.291025727987289429e-01 -9.026387333869934082e-02
6.463191509246826172e-01 6.107214093208312988e-01 9.832229465246200562e-02
-4.622500389814376831e-03 -4.196295887231826782e-02 -6.645003333687782288e-03
-4.465080201625823975e-01 -4.378806650638580322e-01 -1.193886995315551758e-01
-2.585888206958770752e-01 -4.984721839427947998e-01 -1.074498146772384644e-01
4.143447577953338623e-01 5.250211432576179504e-02 4.420214518904685974e-02
1.536599546670913696e-01 2.326391637325286865e-01 3.800884261727333069e-02
-9.960040450096130371e-02 -3.946478366851806641e-01 -7.357030361890792847e-02
2.240735441446304321e-01 -6.695131063461303711e-01 -1.474682837724685669e-01
2.209899276494979858e-01 1.294839680194854736e-01 3.218495845794677734e-02
-1.640936136245727539e-01 -1.126987338066101074e+00 -3.248345255851745605e-01
-1.171726211905479431e-01 -2.547272108495235443e-02 -1.607109606266021729e-02
4.506149142980575562e-02 1.273995358496904373e-02 5.950810387730598450e-03
-8.406641483306884766e-01 -5.842680335044860840e-01 -2.485134601593017578e-01
-1.436162441968917847e-01 -1.579190194606781006e-01 -3.384940698742866516e-02
-4.431387484073638916e-01 5.398787856101989746e-01 8.319447189569473267e-02
-6.338138580322265625e-01 -5.324238538742065430e-01 -1.764154136180877686e-01
2.801424264907836914e-01 2.297378927469253540e-01 4.560406133532524109e-02
1.644665151834487915e-01 -6.347169280052185059e-01 -1.337014287710189819e-01
9.532155394554138184e-01 7.814605832099914551e-01 1.236470267176628113e-01
5.266471579670906067e-02 -1.034409523010253906e+00 -2.710718512535095215e-01
-3.475014269351959229e-01 -3.422761559486389160e-01 -8.674502372741699219e-02
1.255543828010559082e-01 -2.183417081832885742e-01 -4.172436520457267761e-02
1.241973936557769775e-01 -9.073665142059326172e-01 -2.192716300487518311e-01
-6.999981999397277832e-01 -2.700742185115814209e-01 -1.444684118032455444e-01
-4.526913166046142578e-01 -5.802568793296813965e-01 -1.520187556743621826e-01
-4.167906045913696289e-01 4.767284393310546875e-01 7.627598941326141357e-02
4.878085479140281677e-02 1.070825308561325073e-01 1.720450632274150848e-02
-5.065032839775085449e-01 -9.603940844535827637e-01 -2.910877764225006104e-01
1.736424714326858521e-01 6.007365137338638306e-02 2.250953391194343567e-02
1.747480481863021851e-01 2.311163395643234253e-01 3.899160027503967285e-02
6.683494448661804199e-01 6.552156805992126465e-01 1.027556508779525757e-01
3.200895152986049652e-03 -5.202420428395271301e-02 -8.240460418164730072e-03
6.741522997617721558e-02 1.727786101400852203e-02 8.706226944923400879e-03
-1.985215693712234497e-01 -2.453130632638931274e-01 -5.266929790377616882e-02
