7.466341257095336914e-01 -4.673660993576049805e-01 -1.085534915328025818e-01
7.466341257095336914e-01 -4.692567586898803711e-01 -1.930110342800617218e-02
7.466341257095336914e-01 -4.875975549221038818e-01 -1.338749844580888748e-02
7.466340661048889160e-01 -4.745953977108001709e-01 -1.795737296342849731e-01
7.466341257095336914e-01 -4.885861873626708984e-01 8.598018437623977661e-02
7.466340661048889160e-01 -4.667708277702331543e-01 -1.183246523141860962e-01
7.466340661048889160e-01 -4.818672239780426025e-01 -1.027754247188568115e-01
7.466341257095336914e-01 -4.446076750755310059e-01 -1.647726595401763916e-01
7.466341257095336914e-01 -4.907905459403991699e-01 -2.114045321941375732e-01
7.466341257095336914e-01 -4.760982096195220947e-01 -1.802321821451187134e-01
7.370408773422241211e-01 -4.979459345340728760e-01 -9.867488592863082886e-02
7.113801240921020508e-01 -4.979459345340728760e-01 1.073871701955795288e-01
7.184491157531738281e-01 -4.979459047317504883e-01 5.479764193296432495e-02
7.117633819580078125e-01 -4.979459047317504883e-01 1.062015742063522339e-01
7.021520733833312988e-01 -4.979459047317504883e-01 1.214109361171722412e-01
7.140864133834838867e-01 -4.979459047317504883e-01 1.327025890350341797e-01
7.283955216407775879e-01 -4.979459643363952637e-01 8.803056925535202026e-02
7.152440547943115234e-01 -4.979459047317504883e-01 7.351185381412506104e-02
7.132097482681274414e-01 -4.979459345340728760e-01 7.857654243707656860e-03
6.864555478096008301e-01 -4.979459643363952637e-01 1.125953942537307739e-01
7.420389056205749512e-01 -4.979459047317504883e-01 1.198130249977111816e-01
6.530042290687561035e-01 -4.979460239410400391e-01 1.496847271919250488e-01
7.326751947402954102e-01 -4.979459643363952637e-01 -1.251890659332275391e-01
7.050585150718688965e-01 -4.979459643363952637e-01 4.615737125277519226e-03
6.858906149864196777e-01 -4.979458749294281006e-01 2.802853472530841827e-03
6.728694438934326172e-01 -4.979459643363952637e-01 5.268166959285736084e-02
7.244013547897338867e-01 -4.979459047317504883e-01 -1.085755303502082825e-01
7.057409286499023438e-01 -4.979459643363952637e-01 -5.123748444020748138e-03
7.441321015357971191e-01 -4.979459345340728760e-01 -4.783829674124717712e-02
7.324849963188171387e-01 -4.979459047317504883e-01 -5.901447311043739319e-02
6.945213675498962402e-01 -4.979459047317504883e-01 -3.397170826792716980e-02
7.378645539283752441e-01 -4.979459345340728760e-01 1.306207925081253052e-01
7.458534240722656250e-01 -4.979459047317504883e-01 2.054596319794654846e-02
6.966918706893920898e-01 -4.979459643363952637e-01 1.893412880599498749e-02
7.326728105545043945e-01 -4.979459643363952637e-01 1.551254540681838989e-01
7.166374921798706055e-01 -4.979459941387176514e-01 -1.910286024212837219e-02
6.719700694084167480e-01 -4.979459643363952637e-01 9.538704156875610352e-02
6.915763020515441895e-01 -4.979459345340728760e-01 5.346102267503738403e-02
7.315756678581237793e-01 -4.979459643363952637e-01 -1.037892699241638184e-02
7.021122574806213379e-01 -5.101730227470397949e-01 -2.738710641860961914e-01
6.397470235824584961e-01 -5.292389392852783203e-01 -3.089520335197448730e-01
7.590232491493225098e-01 -5.292388796806335449e-01 -1.466196626424789429e-01
7.550813555717468262e-01 -5.292389392852783203e-01 1.134169101715087891e-01
7.014930248260498047e-01 -5.605319738388061523e-01 -5.303541547618806362e-04
6.362135410308837891e-01 -5.292389392852783203e-01 -2.059527039527893066e-01
6.853603720664978027e-01 -5.292389988899230957e-01 -6.019106134772300720e-02
6.465936899185180664e-01 -5.292389392852783203e-01 3.285044059157371521e-02
6.888188719749450684e-01 -5.292390584945678711e-01 -2.406822144985198975e-01
6.536673903465270996e-01 -5.292389392852783203e-01 -9.700614213943481445e-02
7.135972380638122559e-01 -5.292389392852783203e-01 -2.653344571590423584e-01
6.674814224243164062e-01 -5.292388796806335449e-01 -1.924994438886642456e-01
7.164881825447082520e-01 -5.292388796806335449e-01 -1.746544688940048218e-01
7.139534950256347656e-01 -5.292389392852783203e-01 -2.455720454454421997e-01
6.797974705696105957e-01 -5.292389392852783203e-01 -1.017156150192022324e-02
7.012315392494201660e-01 -5.292389988899230957e-01 -2.632949948310852051e-01
6.705286502838134766e-01 -5.292389392852783203e-01 -1.471680104732513428e-01
7.009689807891845703e-01 -5.292389988899230957e-01 -1.594043523073196411e-01
7.203853130340576172e-01 -5.292389392852783203e-01 -2.967779934406280518e-01
6.851769685745239258e-01 -5.292389392852783203e-01 -1.302303671836853027e-01
6.984732747077941895e-01 -5.292389392852783203e-01 -1.319286078214645386e-01
6.799926161766052246e-01 -5.292389392852783203e-01 -2.399587631225585938e-01
6.509719491004943848e-01 -5.292388796806335449e-01 -6.178196519613265991e-02
7.005968689918518066e-01 -5.292388796806335449e-01 -2.143957614898681641e-01
6.739281415939331055e-01 -5.292389392852783203e-01 5.176886450499296188e-03
7.334460616111755371e-01 -5.292389392852783203e-01 -2.548969388008117676e-01
6.748655438423156738e-01 -5.292389392852783203e-01 -1.066649705171585083e-01
6.498757004737854004e-01 -5.292389392852783203e-01 -3.046086430549621582e-01
6.983906626701354980e-01 -5.292389988899230957e-01 -2.383315563201904297e-01
6.754751801490783691e-01 -5.292389392852783203e-01 -1.416223198175430298e-01
6.694304943084716797e-01 -5.292389392852783203e-01 -1.338548511266708374e-01
6.656497716903686523e-01 -5.292389392852783203e-01 -8.719458431005477905e-02
6.908647418022155762e-01 -5.292389392852783203e-01 -1.678936928510665894e-01
6.390773057937622070e-01 -5.292389988899230957e-01 -1.598200649023056030e-01
7.081021070480346680e-01 -5.292389392852783203e-01 -1.594133377075195312e-01
7.188904285430908203e-01 -5.292388796806335449e-01 -2.663890719413757324e-01
6.735404729843139648e-01 -5.292389392852783203e-01 -2.958510816097259521e-01
7.038736343383789062e-01 -5.292389392852783203e-01 -1.565283983945846558e-01
7.119734287261962891e-01 -5.292389392852783203e-01 -1.943840831518173218e-01
6.467291116714477539e-01 -5.292389392852783203e-01 -1.833581626415252686e-01
6.602482795715332031e-01 -5.292389392852783203e-01 -1.270375251770019531e-01
6.644561290740966797e-01 -5.292389392852783203e-01 -1.298732012510299683e-01
6.650832295417785645e-01 -5.292389392852783203e-01 -7.082115113735198975e-02
6.580033302307128906e-01 -5.292389392852783203e-01 -2.549558877944946289e-01
6.769828796386718750e-01 -5.292388796806335449e-01 -1.972631812095642090e-01
6.799722313880920410e-01 -5.292388796806335449e-01 -4.166128858923912048e-02
6.939256191253662109e-01 -5.292389392852783203e-01 -2.422445416450500488e-01
7.195850610733032227e-01 -5.292389988899230957e-01 -3.022389411926269531e-01
6.985253691673278809e-01 -5.292389392852783203e-01 -2.825062572956085205e-01
6.344695687294006348e-01 -4.979459345340728760e-01 -2.925812304019927979e-01
6.335240602493286133e-01 -4.979459047317504883e-01 2.609468251466751099e-02
6.350796818733215332e-01 -4.979459345340728760e-01 -2.520157098770141602e-01
6.326402425765991211e-01 -4.979459345340728760e-01 1.706813573837280273e-01
6.379050016403198242e-01 -4.979459643363952637e-01 -6.826276332139968872e-02
6.449335217475891113e-01 -4.443743526935577393e-01 1.043616756796836853e-01
6.449334621429443359e-01 -4.802459776401519775e-01 -4.963054135441780090e-02
6.449335217475891113e-01 -4.426952004432678223e-01 1.438601464033126831e-01
6.449334621429443359e-01 -4.912041723728179932e-01 -1.183958798646926880e-01
6.449334621429443359e-01 -4.840762913227081299e-01 4.082208499312400818e-02
6.449334621429443359e-01 -4.507657289505004883e-01 7.171500474214553833e-02
6.449334621429443359e-01 -4.742032587528228760e-01 1.128110140562057495e-01
6.449334621429443359e-01 -4.459552466869354248e-01 1.010844558477401733e-01
6.449334621429443359e-01 -4.753319621086120605e-01 1.026861891150474548e-01
6.449335217475891113e-01 -4.866459965705871582e-01 1.134589314460754395e-03
6.449334621429443359e-01 -4.932910203933715820e-01 -6.067510694265365601e-02
6.449334621429443359e-01 -4.486449658870697021e-01 2.141862921416759491e-02
6.449333429336547852e-01 -4.860553443431854248e-01 -5.024199187755584717e-02
6.449335217475891113e-01 -4.900974631309509277e-01 1.219324395060539246e-01
6.449334621429443359e-01 -4.903702437877655029e-01 -1.137881428003311157e-01
6.449333429336547852e-01 -4.770395755767822266e-01 6.626047939062118530e-02
6.449334621429443359e-01 -4.816564917564392090e-01 -1.505708247423171997e-01
6.449334025382995605e-01 -4.773733317852020264e-01 -1.319019496440887451e-01
6.449334621429443359e-01 -4.495620131492614746e-01 1.396326869726181030e-01
6.449334025382995605e-01 -4.477526843547821045e-01 9.949862211942672729e-02
6.449334025382995605e-01 -4.653477966785430908e-01 5.004357546567916870e-02
6.586229205131530762e-01 -4.979459047317504883e-01 -7.297660410404205322e-02
6.683975458145141602e-01 -4.979459345340728760e-01 -8.324079215526580811e-02
6.815180182456970215e-01 -4.979459345340728760e-01 -1.067415997385978699e-01
7.204250097274780273e-01 -4.979458451271057129e-01 -1.664444059133529663e-01
7.416971325874328613e-01 -4.979459345340728760e-01 -2.372955381870269775e-01
6.906976699829101562e-01 -4.979459643363952637e-01 -2.016668319702148438e-01
6.703032255172729492e-01 -4.979459643363952637e-01 -2.005307935178279877e-02
6.639047861099243164e-01 -4.979459643363952637e-01 3.687879443168640137e-02
6.764404177665710449e-01 -4.979458451271057129e-01 -4.716432094573974609e-02
6.593009829521179199e-01 -4.979459345340728760e-01 -4.725454747676849365e-02
6.956947445869445801e-01 -4.979459047317504883e-01 -1.596729010343551636e-01
7.118528485298156738e-01 -4.979458749294281006e-01 -2.357541769742965698e-01
7.289922833442687988e-01 -4.979459643363952637e-01 -1.770644932985305786e-01
6.650507450103759766e-01 -4.979459643363952637e-01 -1.719041727483272552e-03
6.471641063690185547e-01 -4.979459941387176514e-01 -5.774152651429176331e-02
7.002998590469360352e-01 -4.979459345340728760e-01 -7.879301160573959351e-02
6.542870402336120605e-01 -4.979459345340728760e-01 -1.089449077844619751e-01
6.567968726158142090e-01 -4.979459047317504883e-01 -2.071011960506439209e-01
6.825704574584960938e-01 -4.979459047317504883e-01 -1.230845414102077484e-02
6.496554017066955566e-01 -4.979459345340728760e-01 1.030229218304157257e-02
6.460728645324707031e-01 -4.979459643363952637e-01 -2.960889786481857300e-02
6.628077626228332520e-01 -4.979459643363952637e-01 -2.353929281234741211e-01
6.453479528427124023e-01 -4.979459345340728760e-01 -6.982626765966415405e-02
6.848044395446777344e-01 -4.979459345340728760e-01 -1.568569093942642212e-01
6.604835987091064453e-01 -4.979459643363952637e-01 -2.018046230077743530e-01
7.175999879837036133e-01 -4.979459643363952637e-01 -2.131931185722351074e-01
6.522415280342102051e-01 -4.979459345340728760e-01 -1.925533823668956757e-02
6.783012151718139648e-01 -4.979459345340728760e-01 -4.828416276723146439e-03
6.773387193679809570e-01 -4.979458749294281006e-01 -5.951616913080215454e-03
6.324166655540466309e-01 -5.054435133934020996e-01 -2.932091355323791504e-01
6.324166655540466309e-01 -5.136163234710693359e-01 -1.344349533319473267e-01
6.324166655540466309e-01 -5.081807374954223633e-01 -4.091418534517288208e-02
6.324166655540466309e-01 -5.205435156822204590e-01 -2.677695751190185547e-01
6.324166655540466309e-01 -5.078945755958557129e-01 -4.692954942584037781e-02
6.324166655540466309e-01 -4.995369613170623779e-01 1.616202145814895630e-01
6.324167251586914062e-01 -5.130451917648315430e-01 -6.482043862342834473e-02
6.324166655540466309e-01 -5.053950548171997070e-01 -2.522571682929992676e-01
6.324166059494018555e-01 -5.025697946548461914e-01 -7.801717519760131836e-02
6.324166059494018555e-01 -5.111059546470642090e-01 -1.118219271302223206e-01
6.324166655540466309e-01 -5.176705718040466309e-01 -2.426569014787673950e-01
6.324167251586914062e-01 -5.048220157623291016e-01 -2.544197142124176025e-01
7.349394559860229492e-01 -5.126368999481201172e-01 -3.055919706821441650e-01
7.194379568099975586e-01 -5.277587771415710449e-01 -3.055919408798217773e-01
7.509059309959411621e-01 -5.236931443214416504e-01 -3.055919110774993896e-01
7.466341257095336914e-01 -3.273685872554779053e-01 -2.167690992355346680e-01
7.466341257095336914e-01 -3.028906285762786865e-01 -2.191728353500366211e-01
7.466341257095336914e-01 -3.780874013900756836e-01 -2.346647828817367554e-01
7.466341257095336914e-01 -3.217871189117431641e-01 -2.232800871133804321e-01
7.466341257095336914e-01 -4.174351096153259277e-01 -2.359870821237564087e-01
7.466341257095336914e-01 -4.476374685764312744e-01 -1.964843869209289551e-01
7.466341853141784668e-01 -2.618491947650909424e-01 -2.418864071369171143e-01
7.466341853141784668e-01 -2.733711302280426025e-01 -2.236807644367218018e-01
7.466341257095336914e-01 -3.955964148044586182e-01 -2.079039365053176880e-01
7.466341853141784668e-01 -2.836881577968597412e-01 -2.202232480049133301e-01
7.466341853141784668e-01 -3.672715425491333008e-01 -2.329177707433700562e-01
7.466341257095336914e-01 -4.399764239788055420e-01 -2.270152270793914795e-01
7.466340661048889160e-01 -4.494564235210418701e-01 -2.171013206243515015e-01
7.466341257095336914e-01 -4.095421433448791504e-01 -2.092675715684890747e-01
7.466341257095336914e-01 -4.450089037418365479e-01 -2.364970594644546509e-01
7.466340661048889160e-01 -4.869588613510131836e-01 1.231179982423782349e-01
7.466340661048889160e-01 -4.525504410266876221e-01 -4.982730373740196228e-02
7.466340661048889160e-01 -4.560622870922088623e-01 3.634899854660034180e-02
7.466341257095336914e-01 -4.362550973892211914e-01 4.470799118280410767e-03
7.466341853141784668e-01 -4.646919071674346924e-01 9.670750051736831665e-02
7.466341853141784668e-01 -4.430540800094604492e-01 2.609830163419246674e-02
7.466341257095336914e-01 -4.557950496673583984e-01 -2.611486613750457764e-02
7.466341257095336914e-01 -4.602627456188201904e-01 3.348405240103602409e-03
7.466341257095336914e-01 -4.467356204986572266e-01 4.497637972235679626e-03
7.466341853141784668e-01 -4.474102854728698730e-01 4.961782693862915039e-02
7.052284479141235352e-01 -4.979459941387176514e-01 1.585191488265991211e-01
6.564349532127380371e-01 -4.789473712444305420e-01 1.534727960824966431e-01
7.101891636848449707e-01 -4.762382805347442627e-01 1.531163007020950317e-01
6.786739230155944824e-01 -4.953162968158721924e-01 1.556268930435180664e-01
6.674524545669555664e-01 -4.678813219070434570e-01 1.520165354013442993e-01
6.923635601997375488e-01 -4.851730465888977051e-01 1.542920768260955811e-01
6.986405849456787109e-01 -5.191196799278259277e-01 -2.782168984413146973e-01
7.498654127120971680e-01 -5.292388796806335449e-01 -3.108027577400207520e-01
6.869105100631713867e-01 -5.605319142341613770e-01 -2.624635994434356689e-01
6.420252919197082520e-01 -4.979460239410400391e-01 -2.852104902267456055e-01
6.735808253288269043e-01 -4.979459345340728760e-01 -2.754896283149719238e-01
6.449334621429443359e-01 -4.117985069751739502e-01 1.240002550184726715e-02
6.449334621429443359e-01 -4.487130641937255859e-01 -6.267908494919538498e-03
6.449334025382995605e-01 -4.473916888236999512e-01 -6.665446609258651733e-02
6.449335217475891113e-01 -4.231483638286590576e-01 2.143401838839054108e-02
6.449334621429443359e-01 -4.734234511852264404e-01 -1.639163494110107422e-01
6.449334025382995605e-01 -4.232413470745086670e-01 6.703485548496246338e-02
6.449334621429443359e-01 -3.900224566459655762e-01 6.399817764759063721e-02
6.449334025382995605e-01 -4.666581451892852783e-01 -1.081870943307876587e-01
6.449334621429443359e-01 -4.166842997074127197e-01 9.080029278993606567e-02
6.449334621429443359e-01 -3.769108355045318604e-01 1.106607168912887573e-01
6.449334621429443359e-01 -4.392559230327606201e-01 5.302311480045318604e-02
6.449334621429443359e-01 -4.603274464607238770e-01 -1.357758045196533203e-01
6.449334621429443359e-01 -4.087694287300109863e-01 1.324547678232192993e-01
6.449334621429443359e-01 -3.835422396659851074e-01 9.529327601194381714e-02
6.449334621429443359e-01 -3.989261984825134277e-01 1.192057654261589050e-01
6.449334025382995605e-01 -4.701062440872192383e-01 -9.615974873304367065e-02
6.449335217475891113e-01 -4.404663741588592529e-01 5.252818763256072998e-02
6.449335217475891113e-01 -4.720147848129272461e-01 -1.459322422742843628e-01
6.449335217475891113e-01 -4.438467025756835938e-01 -4.393019899725914001e-02
6.449335217475891113e-01 -4.172623455524444580e-01 -7.560051977634429932e-03
6.449335217475891113e-01 -4.132404327392578125e-01 4.977045208215713501e-02
6.851518154144287109e-01 -4.979459345340728760e-01 -2.484420984983444214e-01
6.860006451606750488e-01 -4.979459941387176514e-01 -2.434788197278976440e-01
6.908933520317077637e-01 -4.461606740951538086e-01 -2.430079877376556396e-01
6.766042709350585938e-01 -4.784765839576721191e-01 -2.430079877376556396e-01
6.791927814483642578e-01 -4.149465262889862061e-01 -2.430079877376556396e-01
7.097515463829040527e-01 -3.142357170581817627e-01 -2.430079728364944458e-01
6.947534084320068359e-01 -4.460567533969879150e-01 -2.430080324411392212e-01
6.821511387825012207e-01 -4.196659028530120850e-01 -2.430080324411392212e-01
6.954707503318786621e-01 -4.883759319782257080e-01 -2.430079728364944458e-01
7.250331640243530273e-01 -2.458635568618774414e-01 -2.430079877376556396e-01
7.448776960372924805e-01 -4.231570661067962646e-01 -2.430080026388168335e-01
7.386880517005920410e-01 -3.453248143196105957e-01 -2.430079728364944458e-01
7.291393876075744629e-01 -3.934783041477203369e-01 -2.430079877376556396e-01
7.340454459190368652e-01 -3.071985244750976562e-01 -2.430079877376556396e-01
7.120285630226135254e-01 -4.506367743015289307e-01 -2.430080175399780273e-01
7.047247290611267090e-01 -3.639490008354187012e-01 -2.430079728364944458e-01
7.027785778045654297e-01 -3.767040371894836426e-01 -2.430080175399780273e-01
7.309538125991821289e-01 -4.329172670841217041e-01 -2.430079877376556396e-01
7.437356114387512207e-01 -4.877179265022277832e-01 -2.430079877376556396e-01
7.357915639877319336e-01 -2.943775951862335205e-01 -2.430080175399780273e-01
7.445514798164367676e-01 -3.873217999935150146e-01 -2.430079877376556396e-01
7.213223576545715332e-01 -4.538029134273529053e-01 -2.430080175399780273e-01
7.083069086074829102e-01 -2.956334352493286133e-01 -2.430079728364944458e-01
7.098900675773620605e-01 -4.260791540145874023e-01 -2.430080175399780273e-01
6.994280815124511719e-01 -4.118581116199493408e-01 -2.430080473423004150e-01
6.794777512550354004e-01 -4.776053130626678467e-01 -2.430079877376556396e-01
6.735190153121948242e-01 -5.158483386039733887e-01 -3.055919408798217773e-01
6.952002048492431641e-01 -5.022686719894409180e-01 -3.055919110774993896e-01
6.966636776924133301e-01 -5.105548501014709473e-01 -3.055920004844665527e-01
7.466341257095336914e-01 -2.719784677028656006e-01 -2.073436677455902100e-01
7.466341853141784668e-01 -8.971847593784332275e-02 -2.394966781139373779e-01
7.466341257095336914e-01 -4.267886281013488770e-01 -1.816913038492202759e-01
7.466341257095336914e-01 -5.381539836525917053e-02 -2.419521361589431763e-01
7.466341257095336914e-01 -1.336651146411895752e-01 -2.307986170053482056e-01
7.466341257095336914e-01 -6.224125623703002930e-02 -2.427834570407867432e-01
7.466341257095336914e-01 -2.222541905939579010e-02 -2.377109378576278687e-01
7.466340065002441406e-01 -3.043527305126190186e-01 -2.108484953641891479e-01
7.466341257095336914e-01 -4.076190888881683350e-01 -1.840919256210327148e-01
7.466341257095336914e-01 -2.878498136997222900e-01 -2.027530074119567871e-01
7.466341257095336914e-01 2.045148611068725586e-02 -2.426184713840484619e-01
7.466341257095336914e-01 -2.162103801965713501e-01 7.282578945159912109e-02
7.466341853141784668e-01 -2.898921668529510498e-01 8.846437186002731323e-02
7.466341257095336914e-01 -4.350996613502502441e-01 6.910343468189239502e-02
7.466341853141784668e-01 -2.691130340099334717e-01 8.351890742778778076e-02
7.466341257095336914e-01 -3.102298676967620850e-01 5.112702772021293640e-02
7.466341257095336914e-01 -1.786799579858779907e-01 7.424466311931610107e-02
7.466341853141784668e-01 -2.916505932807922363e-01 9.476763010025024414e-02
7.466341257095336914e-01 -2.057258188724517822e-01 8.388884365558624268e-02
7.466340661048889160e-01 -3.452261686325073242e-01 9.752320498228073120e-02
7.466341257095336914e-01 -3.935111463069915771e-01 1.084576174616813660e-01
7.466341257095336914e-01 -3.486213684082031250e-01 8.314934372901916504e-02
7.466340661048889160e-01 -4.331272840499877930e-01 6.453892588615417480e-02
7.466340661048889160e-01 -3.694301843643188477e-01 1.033491343259811401e-01
7.466341853141784668e-01 -3.394480943679809570e-01 1.156741753220558167e-01
7.466341853141784668e-01 -3.472030460834503174e-01 9.030663967132568359e-02
7.466340661048889160e-01 -4.146637916564941406e-01 1.057394221425056458e-01
7.466340661048889160e-01 -3.187758326530456543e-01 6.753796339035034180e-02
7.466341853141784668e-01 -1.168311536312103271e-01 5.645872280001640320e-02
7.466341257095336914e-01 -4.523295164108276367e-01 9.990601986646652222e-02
7.466341853141784668e-01 -3.716004490852355957e-01 1.018998697400093079e-01
7.466341257095336914e-01 -4.087719023227691650e-01 5.783393979072570801e-02
7.466341257095336914e-01 -4.088325500488281250e-01 1.242890581488609314e-01
7.466341257095336914e-01 -2.613535523414611816e-01 8.267664164304733276e-02
7.466341257095336914e-01 -3.922517299652099609e-01 1.003997102379798889e-01
7.466341257095336914e-01 -2.846533060073852539e-01 5.831186473369598389e-02
7.466341257095336914e-01 -4.323741495609283447e-01 1.345758140087127686e-01
7.466340661048889160e-01 -1.934788525104522705e-01 7.408342510461807251e-02
7.466341257095336914e-01 -4.255070686340332031e-01 1.243019774556159973e-01
7.345697283744812012e-01 -4.353620111942291260e-01 3.421132639050483704e-02
7.445210814476013184e-01 -4.353620707988739014e-01 -2.919957973062992096e-02
7.394167780876159668e-01 -4.353620111942291260e-01 -6.820457428693771362e-02
7.343089580535888672e-01 -4.272298812866210938e-01 1.466669291257858276e-01
7.443713545799255371e-01 -4.759654700756072998e-01 1.530803740024566650e-01
6.552011966705322266e-01 -4.278496205806732178e-01 1.467484831809997559e-01
6.899062395095825195e-01 -4.455260038375854492e-01 1.490746438503265381e-01
6.979941129684448242e-01 -4.313665628433227539e-01 1.472112685441970825e-01
7.172282934188842773e-01 -4.979459345340728760e-01 -2.853817641735076904e-01
6.992192268371582031e-01 -5.605318546295166016e-01 -2.132358700037002563e-01
6.873579025268554688e-01 -5.605318546295166016e-01 -5.446688458323478699e-02
7.159106135368347168e-01 -4.079990983009338379e-01 1.445549726486206055e-01
6.482976675033569336e-01 -3.962352573871612549e-01 1.432915180921554565e-01
6.784522533416748047e-01 -4.093351960182189941e-01 1.446985006332397461e-01
6.468868851661682129e-01 -3.547602891921997070e-01 1.388368755578994751e-01
6.481608748435974121e-01 -3.714713156223297119e-01 1.406317204236984253e-01
6.449335217475891113e-01 -3.468834757804870605e-01 2.545075304806232452e-02
6.449335217475891113e-01 -4.243152141571044922e-01 -1.030047237873077393e-01
6.449334621429443359e-01 -3.524737954139709473e-01 1.072255522012710571e-01
6.449334621429443359e-01 -3.734150528907775879e-01 5.260543152689933777e-02
6.449334621429443359e-01 -3.449004292488098145e-01 2.741857245564460754e-02
6.449334621429443359e-01 -4.724358916282653809e-01 -1.829586625099182129e-01
6.449334621429443359e-01 -3.903004825115203857e-01 -1.220234297215938568e-02
6.449334621429443359e-01 -3.346995413303375244e-01 6.530389934778213501e-02
6.449334621429443359e-01 -3.698443770408630371e-01 2.381870336830615997e-02
6.449334621429443359e-01 -3.062245547771453857e-01 1.050551310181617737e-01
6.449335217475891113e-01 -4.931504428386688232e-01 -2.334113121032714844e-01
6.449334621429443359e-01 -3.547614812850952148e-01 2.295565977692604065e-02
6.449334621429443359e-01 -3.712755143642425537e-01 3.310701623558998108e-02
6.449334621429443359e-01 -3.225044608116149902e-01 9.196797758340835571e-02
6.449334621429443359e-01 -3.672921955585479736e-01 4.013045877218246460e-02
6.449335217475891113e-01 -3.442024588584899902e-01 2.899111993610858917e-02
6.449335217475891113e-01 -3.973134756088256836e-01 -1.614484377205371857e-02
6.449334621429443359e-01 -4.283723235130310059e-01 -7.794262468814849854e-02
6.449334621429443359e-01 -3.715675473213195801e-01 8.732491172850131989e-03
6.449334621429443359e-01 -3.572547137737274170e-01 1.929442584514617920e-02
6.449334621429443359e-01 -4.005880355834960938e-01 -3.357790037989616394e-02
6.552566289901733398e-01 -3.910868465900421143e-01 -2.430079877376556396e-01
6.810455918312072754e-01 -2.595847547054290771e-01 -2.430080175399780273e-01
6.602556109428405762e-01 -4.447106719017028809e-01 -2.430080324411392212e-01
6.512842774391174316e-01 -3.444476425647735596e-01 -2.430080026388168335e-01
6.454747319221496582e-01 -2.941609621047973633e-01 -2.430079877376556396e-01
7.274472117424011230e-01 -1.813800632953643799e-01 -2.430080175399780273e-01
6.717733144760131836e-01 -2.416078895330429077e-01 -2.430080175399780273e-01
7.107025980949401855e-01 -2.674355506896972656e-01 -2.430080324411392212e-01
6.860069036483764648e-01 -3.178611397743225098e-01 -2.430079728364944458e-01
6.564397215843200684e-01 -3.421659767627716064e-01 -2.430080026388168335e-01
6.712635755538940430e-01 -2.263900935649871826e-01 -2.430079728364944458e-01
6.998425126075744629e-01 -2.082650810480117798e-01 -2.430079728364944458e-01
6.888165473937988281e-01 -1.855583190917968750e-01 -2.430079728364944458e-01
6.986229419708251953e-01 -1.735794991254806519e-01 -2.430079877376556396e-01
7.071420550346374512e-01 -2.488595992326736450e-01 -2.430079728364944458e-01
7.076404690742492676e-01 -2.387649863958358765e-01 -2.430079877376556396e-01
6.915446519851684570e-01 -3.055495321750640869e-01 -2.430079728364944458e-01
6.766612529754638672e-01 -3.080576062202453613e-01 -2.430080622434616089e-01
6.560091376304626465e-01 -1.949719041585922241e-01 -2.430080026388168335e-01
6.831993460655212402e-01 -3.312946557998657227e-01 -2.430079430341720581e-01
6.591297984123229980e-01 -2.684669196605682373e-01 -2.430080026388168335e-01
7.133359909057617188e-01 -2.190953344106674194e-01 -2.430079877376556396e-01
6.922461986541748047e-01 -2.254829406738281250e-01 -2.430080026388168335e-01
6.841435432434082031e-01 -2.672648727893829346e-01 -2.430079728364944458e-01
6.894286870956420898e-01 -2.897114455699920654e-01 -2.430080324411392212e-01
7.233900427818298340e-01 -4.979459047317504883e-01 -2.950071394443511963e-01
7.102878093719482422e-01 -4.979459643363952637e-01 -2.881594300270080566e-01
7.466341257095336914e-01 -2.505154348909854889e-03 -2.195433378219604492e-01
7.466341853141784668e-01 -2.716111242771148682e-01 -1.824442744255065918e-01
7.466341853141784668e-01 -2.059944421052932739e-01 -2.010922878980636597e-01
7.466341257095336914e-01 -1.607183218002319336e-01 -1.854989677667617798e-01
7.466341853141784668e-01 -1.071904450654983521e-01 -2.069942504167556763e-01
7.466341257095336914e-01 -5.393469706177711487e-02 -2.217347621917724609e-01
7.466341257095336914e-01 -2.058686167001724243e-01 -2.043177336454391479e-01
7.466341257095336914e-01 3.554422780871391296e-02 -2.330354303121566772e-01
7.466341257095336914e-01 -2.988723851740360260e-02 -2.106998711824417114e-01
7.466340661048889160e-01 -1.962051242589950562e-01 -1.869592815637588501e-01
7.466341257095336914e-01 -2.100181728601455688e-01 -2.013765126466751099e-01
7.466341257095336914e-01 -5.944354459643363953e-02 -2.233970165252685547e-01
7.466340661048889160e-01 -5.638455599546432495e-02 -1.916174739599227905e-01
7.466341257095336914e-01 -1.466377675533294678e-01 -1.815821677446365356e-01
7.466341257095336914e-01 -1.778706014156341553e-01 -1.915396600961685181e-01
7.466340661048889160e-01 -2.936424128711223602e-02 -2.255816459655761719e-01
7.466341257095336914e-01 -2.105456590652465820e-01 -1.908176392316818237e-01
7.466341257095336914e-01 -1.983431130647659302e-01 8.381196856498718262e-02
7.466341257095336914e-01 -2.223044633865356445e-01 8.969716727733612061e-02
7.466341853141784668e-01 -4.755833446979522705e-01 1.528072804212570190e-01
7.366821765899658203e-01 -4.120314419269561768e-01 5.035543441772460938e-02
7.427068352699279785e-01 -3.887619972229003906e-01 5.035543441772460938e-02
7.357696890830993652e-01 -3.686410784721374512e-01 5.035543814301490784e-02
7.364878058433532715e-01 -4.192055165767669678e-01 5.035543441772460938e-02
7.374258637428283691e-01 -4.353619813919067383e-01 -1.641726195812225342e-01
7.332488894462585449e-01 -4.353620707988739014e-01 -1.417147368192672729e-01
7.368071675300598145e-01 -4.353619813919067383e-01 -1.574788391590118408e-01
6.946657299995422363e-01 -5.209747552871704102e-01 -2.792827486991882324e-01
6.876779794692993164e-01 -5.387907028198242188e-01 1.678013950586318970e-01
6.910622715950012207e-01 -3.536063730716705322e-01 1.387129127979278564e-01
7.429154515266418457e-01 -3.828438520431518555e-01 1.418531984090805054e-01
6.691997051239013672e-01 -3.605523407459259033e-01 1.394590139389038086e-01
6.865671873092651367e-01 -3.631262481212615967e-01 1.397354304790496826e-01
6.729966998100280762e-01 -3.627413809299468994e-01 1.396940797567367554e-01
6.821323633193969727e-01 -3.074942827224731445e-01 1.348411589860916138e-01
7.357914447784423828e-01 -3.449262380599975586e-01 1.379618495702743530e-01
6.860237121582031250e-01 -3.242590129375457764e-01 1.362388432025909424e-01
6.828907132148742676e-01 -3.341388404369354248e-01 1.370625197887420654e-01
6.779135465621948242e-01 -3.184021115303039551e-01 1.357505470514297485e-01
7.122963070869445801e-01 -3.395611941814422607e-01 1.375145763158798218e-01
6.449334621429443359e-01 -3.057641088962554932e-01 8.346050977706909180e-02
6.449335217475891113e-01 -2.943045794963836670e-01 8.113709837198257446e-02
6.449334621429443359e-01 -3.666273355484008789e-01 -4.690782725811004639e-02
6.449334621429443359e-01 -3.717499673366546631e-01 -2.985601872205734253e-02
6.449334025382995605e-01 -2.714106738567352295e-01 1.067020148038864136e-01
6.449334621429443359e-01 -3.187861442565917969e-01 4.634902626276016235e-02
6.449335217475891113e-01 -2.741306722164154053e-01 9.005261957645416260e-02
6.449334621429443359e-01 -3.562329411506652832e-01 -1.753185130655765533e-02
6.449334621429443359e-01 -2.941108644008636475e-01 9.361656010150909424e-02
6.449334621429443359e-01 -3.461117744445800781e-01 1.156979426741600037e-02
6.449335217475891113e-01 -4.247507154941558838e-01 -1.410928368568420410e-01
6.449334621429443359e-01 -2.690216600894927979e-01 7.354459166526794434e-02
6.449334025382995605e-01 -4.770349562168121338e-01 -2.155746668577194214e-01
6.449335217475891113e-01 -3.558137714862823486e-01 -6.093208491802215576e-02
6.449334621429443359e-01 -4.618944525718688965e-01 -1.841630935668945312e-01
6.449334621429443359e-01 -3.079966306686401367e-01 3.849883005023002625e-02
6.449334621429443359e-01 -3.952133357524871826e-01 -6.723204255104064941e-02
6.449335217475891113e-01 -2.452015280723571777e-01 1.176404431462287903e-01
6.449334025382995605e-01 -3.493039906024932861e-01 -8.971844799816608429e-03
6.449335217475891113e-01 -3.369088470935821533e-01 1.435599289834499359e-02
6.934948563575744629e-01 -5.146588683128356934e-01 -2.637989223003387451e-01
6.449335217475891113e-01 -2.901457250118255615e-01 -1.572522819042205811e-01
6.449334025382995605e-01 -3.643560707569122314e-01 -2.425943762063980103e-01
6.449335217475891113e-01 -1.197963804006576538e-01 3.432709351181983948e-02
6.449334621429443359e-01 -2.353233397006988525e-01 -4.478736966848373413e-02
6.449334621429443359e-01 -1.759898960590362549e-01 -1.355036199092864990e-01
6.449334025382995605e-01 -2.228969186544418335e-01 -1.171197891235351562e-01
6.449334621429443359e-01 -2.794455885887145996e-01 -8.572696894407272339e-02
6.449335217475891113e-01 -1.839705556631088257e-01 -2.429526001214981079e-01
6.449334621429443359e-01 -3.624304533004760742e-01 -1.848739534616470337e-01
6.449334621429443359e-01 -2.504789531230926514e-01 -4.698333516716957092e-02
6.449334621429443359e-01 -1.425448954105377197e-01 4.286501184105873108e-02
6.449334621429443359e-01 -3.680501282215118408e-01 -2.333457916975021362e-01
6.449334621429443359e-01 -1.167513206601142883e-01 6.975162029266357422e-02
6.449334621429443359e-01 -3.652923703193664551e-01 -2.094521522521972656e-01
6.449335217475891113e-01 -2.130108326673507690e-01 -1.539576202630996704e-01
6.449335217475891113e-01 -4.496099352836608887e-01 -2.323756963014602661e-01
6.449334621429443359e-01 -1.528181880712509155e-01 -7.759020198136568069e-03
6.449334621429443359e-01 -1.885286420583724976e-01 -9.007397294044494629e-02
6.449334621429443359e-01 -2.155845165252685547e-01 -1.282743737101554871e-02
6.449334025382995605e-01 -3.483445644378662109e-01 -1.242964565753936768e-01
6.449334621429443359e-01 -2.236964255571365356e-01 -2.384683489799499512e-01
6.449334621429443359e-01 -3.239023685455322266e-01 -2.419064342975616455e-01
6.449335217475891113e-01 -2.794443666934967041e-01 -1.992254704236984253e-01
6.449334621429443359e-01 -2.442477941513061523e-01 -1.885150671005249023e-01
6.449334621429443359e-01 -3.679175972938537598e-01 -1.560409069061279297e-01
6.449334621429443359e-01 -2.200876474380493164e-01 -1.487995833158493042e-01
6.449334621429443359e-01 -3.571555316448211670e-01 -1.822796612977981567e-01
6.449334621429443359e-01 -4.341599643230438232e-01 -2.317179441452026367e-01
6.449334025382995605e-01 -1.787918657064437866e-01 -1.741348952054977417e-01
6.449335217475891113e-01 -1.935790777206420898e-01 -2.048385292291641235e-01
6.449335217475891113e-01 -1.901306211948394775e-01 8.249245584011077881e-04
6.449335217475891113e-01 -3.955032825469970703e-01 -1.574109643697738647e-01
6.449335217475891113e-01 -1.428933888673782349e-01 4.670604132115840912e-03
6.449334621429443359e-01 -3.670875132083892822e-01 -1.756921261548995972e-01
6.449334621429443359e-01 -1.835301965475082397e-01 -3.916555270552635193e-02
6.449334621429443359e-01 -2.715826034545898438e-01 -9.296696633100509644e-02
6.449334621429443359e-01 -1.955509185791015625e-01 -5.836013704538345337e-02
6.449334621429443359e-01 -2.284159511327743530e-01 -5.291852355003356934e-02
6.449335217475891113e-01 -1.930928081274032593e-01 -2.154970616102218628e-01
6.449335217475891113e-01 -1.839696317911148071e-01 -6.391342729330062866e-02
6.449334621429443359e-01 -1.586196273565292358e-01 -4.050743579864501953e-02
6.449334621429443359e-01 -3.213209509849548340e-01 -2.413332313299179077e-01
6.449334621429443359e-01 -1.664553880691528320e-01 -2.318450957536697388e-01
6.449335217475891113e-01 -2.145904898643493652e-01 -9.999706596136093140e-02
6.449334621429443359e-01 -3.823707103729248047e-01 -2.175179570913314819e-01
6.449335217475891113e-01 -4.336434602737426758e-01 -2.124087810516357422e-01
6.449335217475891113e-01 -1.480116844177246094e-01 -1.595489978790283203e-01
6.449334621429443359e-01 -3.797004222869873047e-01 -2.145963311195373535e-01
6.449334621429443359e-01 -1.971178352832794189e-01 -9.526992589235305786e-02
6.449335217475891113e-01 -2.769622802734375000e-01 -1.697498410940170288e-01
6.449334621429443359e-01 -1.063484475016593933e-01 -2.312165312469005585e-02
6.449334621429443359e-01 -2.702019810676574707e-01 -2.014937102794647217e-01
6.449334621429443359e-01 -1.330490708351135254e-01 -1.236338466405868530e-01
6.449335217475891113e-01 -1.435811519622802734e-01 -1.318320930004119873e-01
6.449334621429443359e-01 -3.148060142993927002e-01 -1.226194426417350769e-01
6.449334621429443359e-01 -1.239232495427131653e-01 5.576115474104881287e-02
6.449335217475891113e-01 -1.638361513614654541e-01 -5.999614670872688293e-02
6.449335217475891113e-01 -1.648651361465454102e-01 -6.943853944540023804e-02
6.449335217475891113e-01 -1.872320920228958130e-01 -7.446530461311340332e-02
6.449334621429443359e-01 -1.503678709268569946e-01 3.978562017437070608e-04
6.449334621429443359e-01 -1.842444837093353271e-01 -9.265322983264923096e-02
6.449334621429443359e-01 -1.224579215049743652e-01 5.856816098093986511e-02
6.449334621429443359e-01 -1.883098930120468140e-01 -4.794681444764137268e-02
6.449334621429443359e-01 -2.680254876613616943e-01 -5.807658657431602478e-02
6.449334621429443359e-01 -2.882803380489349365e-01 -1.581795513629913330e-01
6.449334621429443359e-01 -3.917600214481353760e-01 -1.812425255775451660e-01
6.449334621429443359e-01 -2.671092748641967773e-01 -1.965752989053726196e-01
6.449335217475891113e-01 -2.479309886693954468e-01 -2.119029015302658081e-01
6.449334621429443359e-01 -3.435089588165283203e-01 -1.763355582952499390e-01
6.449334621429443359e-01 -1.460918486118316650e-01 -1.310196369886398315e-01
6.449334621429443359e-01 -2.901757061481475830e-01 -1.432808786630630493e-01
6.449334621429443359e-01 -2.224721908569335938e-01 -6.893834471702575684e-02
6.449334621429443359e-01 -9.281301498413085938e-02 8.506597578525543213e-02
6.449334621429443359e-01 -2.798088490962982178e-01 -1.721224486827850342e-01
6.449334621429443359e-01 -2.122694700956344604e-01 -2.390064448118209839e-01
6.449334621429443359e-01 -3.298072516918182373e-01 -2.000845819711685181e-01
6.449335217475891113e-01 -2.354527264833450317e-01 -1.595347672700881958e-01
6.449334621429443359e-01 -1.669951975345611572e-01 -1.608500778675079346e-01
6.449334621429443359e-01 -1.161996424198150635e-01 -6.308727711439132690e-02
6.449334025382995605e-01 -3.179183006286621094e-01 -1.022495776414871216e-01
6.449334621429443359e-01 -1.916524618864059448e-01 3.116630017757415771e-03
6.449334621429443359e-01 -2.675071656703948975e-01 -1.694047898054122925e-01
6.449335217475891113e-01 -1.476873308420181274e-01 -1.163425743579864502e-01
6.449334621429443359e-01 -2.681423723697662354e-01 -9.654196351766586304e-02
6.449335217475891113e-01 -2.419860213994979858e-01 -6.510950624942779541e-02
6.449334621429443359e-01 -2.041697204113006592e-01 -1.612572073936462402e-01
6.449334621429443359e-01 -2.172829806804656982e-01 -1.887514889240264893e-01
6.449334621429443359e-01 -1.339582949876785278e-01 -1.177130043506622314e-01
6.449334621429443359e-01 -1.794208288192749023e-01 2.014167112065479159e-04
7.466341257095336914e-01 5.585143715143203735e-02 -1.515077948570251465e-01
7.466340661048889160e-01 2.384238177910447121e-04 -1.434292495250701904e-01
7.466341257095336914e-01 2.981935627758502960e-02 -3.361527994275093079e-02
7.466341257095336914e-01 -1.565607637166976929e-02 -1.776768565177917480e-01
7.466341257095336914e-01 6.017030030488967896e-02 -2.254747003316879272e-01
7.466341257095336914e-01 1.512949634343385696e-02 -1.564708799123764038e-01
7.466341257095336914e-01 3.352436469867825508e-03 -2.112329602241516113e-01
7.466341257095336914e-01 1.319345552474260330e-02 -8.036598563194274902e-02
7.466341257095336914e-01 4.091290757060050964e-02 -4.041298478841781616e-02
7.466341257095336914e-01 5.309209227561950684e-02 -5.503665655851364136e-02
7.466340661048889160e-01 6.257735192775726318e-02 -8.594582974910736084e-02
7.466341257095336914e-01 3.734555467963218689e-02 -2.211237996816635132e-01
7.466341257095336914e-01 2.980716899037361145e-02 -1.538359075784683228e-01
7.466341257095336914e-01 5.835402756929397583e-02 -3.100616112351417542e-02
7.466341257095336914e-01 4.136139526963233948e-02 -2.282619327306747437e-01
7.466341257095336914e-01 4.095980525016784668e-02 -1.407526135444641113e-01
7.466341257095336914e-01 2.929106540977954865e-02 -2.096861153841018677e-01
7.466341257095336914e-01 3.999024257063865662e-02 -6.507652252912521362e-02
7.466341257095336914e-01 -2.128190919756889343e-02 -1.186842247843742371e-01
7.466341257095336914e-01 1.985277608036994934e-02 -2.103157937526702881e-01
7.466341257095336914e-01 7.271124050021171570e-03 -1.386746168136596680e-01
7.466340661048889160e-01 -4.717402160167694092e-03 -1.921386867761611938e-01
7.466341257095336914e-01 1.003436651080846786e-02 -1.511211097240447998e-01
7.466340661048889160e-01 4.565193131566047668e-02 -2.184758186340332031e-01
7.466340661048889160e-01 4.534412175416946411e-02 -1.677896678447723389e-01
7.466341853141784668e-01 -3.225230053067207336e-02 -1.891123652458190918e-01
7.466340661048889160e-01 -2.200311049818992615e-02 -1.341839134693145752e-01
7.456405162811279297e-01 -1.707639992237091064e-01 -1.804220676422119141e-01
7.365401387214660645e-01 -1.020172014832496643e-01 -1.804220676422119141e-01
7.378752827644348145e-01 -2.054885178804397583e-01 -1.804220676422119141e-01
7.353531718254089355e-01 -9.137422591447830200e-02 -1.804220527410507202e-01
7.452126145362854004e-01 5.766070634126663208e-02 -2.432712763547897339e-01
7.466341853141784668e-01 -3.352984786033630371e-01 1.226273030042648315e-01
7.466341853141784668e-01 -2.426082193851470947e-01 1.028094738721847534e-01
7.466341257095336914e-01 -3.354071676731109619e-01 1.235529035329818726e-01
7.311075925827026367e-01 -4.043371379375457764e-01 5.035543441772460938e-02
7.322425246238708496e-01 -1.950442343950271606e-01 5.035543814301490784e-02
7.357057929039001465e-01 -1.579226851463317871e-01 5.035543069243431091e-02
7.341401576995849609e-01 -2.591390609741210938e-01 5.035543814301490784e-02
7.309867143630981445e-01 -3.341611325740814209e-01 -3.137081488966941833e-02
7.309866547584533691e-01 -2.428960204124450684e-01 -1.780409067869186401e-01
7.309866547584533691e-01 -2.225738316774368286e-01 -9.469428658485412598e-02
7.309866547584533691e-01 -4.123346209526062012e-01 -1.629134118556976318e-01
7.309866547584533691e-01 -4.012498855590820312e-01 -2.373852767050266266e-02
7.309866547584533691e-01 -2.518996894359588623e-01 -1.082126796245574951e-01
7.309867143630981445e-01 -4.099038541316986084e-01 -4.475155472755432129e-02
7.309866547584533691e-01 -3.252374231815338135e-01 -7.928941398859024048e-02
7.309866547584533691e-01 -1.070862710475921631e-01 -1.588357388973236084e-01
7.309866547584533691e-01 -2.137752175331115723e-01 -1.514890789985656738e-01
7.309866547584533691e-01 -3.439025580883026123e-01 -1.442274153232574463e-01
7.309866547584533691e-01 -1.207126230001449585e-01 -1.661227792501449585e-01
7.309866547584533691e-01 -2.320284843444824219e-01 -1.642993688583374023e-01
7.309866547584533691e-01 -2.453070431947708130e-01 -1.388308256864547729e-01
7.309867143630981445e-01 -3.276629745960235596e-01 -1.264221519231796265e-01
7.309867143630981445e-01 -3.957195580005645752e-01 -1.317169070243835449e-01
7.309867143630981445e-01 -4.124430119991302490e-01 -4.563701152801513672e-02
7.309866547584533691e-01 -2.610901296138763428e-01 -6.400258094072341919e-02
7.309866547584533691e-01 -3.743839859962463379e-01 -4.107718542218208313e-02
7.309865951538085938e-01 -2.762037813663482666e-01 -1.299815475940704346e-01
7.309867143630981445e-01 -4.031543135643005371e-01 -7.219745963811874390e-02
7.309866547584533691e-01 -2.251432090997695923e-01 -1.307387799024581909e-01
7.309867143630981445e-01 -4.080267548561096191e-01 -2.396336197853088379e-02
7.309866547584533691e-01 -4.009754359722137451e-01 4.136677365750074387e-03
7.309866547584533691e-01 -3.477819859981536865e-01 -1.343542486429214478e-01
7.309867143630981445e-01 -1.284681558609008789e-01 -1.508466899394989014e-01
7.309867143630981445e-01 -3.739576935768127441e-01 -1.551074981689453125e-01
7.309865951538085938e-01 -3.495604395866394043e-01 -2.927288971841335297e-02
7.309866547584533691e-01 -3.835133612155914307e-01 -4.378477483987808228e-02
7.309866547584533691e-01 -3.846456706523895264e-01 -1.788388043642044067e-01
7.309866547584533691e-01 -1.782738268375396729e-01 -1.381491720676422119e-01
7.309866547584533691e-01 -2.403304725885391235e-01 -1.718387454748153687e-01
7.309866547584533691e-01 -1.877962052822113037e-01 -1.475176066160202026e-01
7.309867143630981445e-01 -4.042782187461853027e-01 -1.498724520206451416e-01
7.309866547584533691e-01 -3.183471858501434326e-01 -8.155311644077301025e-02
7.309866547584533691e-01 -3.394576609134674072e-01 -7.135843485593795776e-02
7.309865951538085938e-01 -3.946909606456756592e-01 -1.022675931453704834e-01
7.309866547584533691e-01 -2.444827407598495483e-01 -9.728007018566131592e-02
7.309866547584533691e-01 -2.211015969514846802e-01 -1.099902763962745667e-01
7.309867143630981445e-01 -3.975954353809356689e-01 -1.546115726232528687e-01
7.309866547584533691e-01 -1.641623526811599731e-01 -1.495272070169448853e-01
7.309866547584533691e-01 -4.316093325614929199e-01 -1.101677864789962769e-01
7.309866547584533691e-01 -4.002573192119598389e-01 -1.646675914525985718e-01
7.309866547584533691e-01 -2.511983811855316162e-01 -8.368278294801712036e-02
7.309866547584533691e-01 -3.257930874824523926e-01 -7.929652184247970581e-02
7.309867143630981445e-01 -3.949902355670928955e-01 -1.175003964453935623e-02
7.309866547584533691e-01 -3.647884130477905273e-01 -1.735494434833526611e-01
7.309866547584533691e-01 -2.496775984764099121e-01 -1.012334600090980530e-01
7.309866547584533691e-01 -1.395656615495681763e-01 -1.611849069595336914e-01
7.309866547584533691e-01 -3.186271190643310547e-01 -1.210655122995376587e-01
7.309866547584533691e-01 -3.568448126316070557e-01 -2.627092972397804260e-02
7.309867143630981445e-01 -2.091699987649917603e-01 -1.535058170557022095e-01
7.309867143630981445e-01 -2.348488867282867432e-01 -7.710734009742736816e-02
7.309867143630981445e-01 -4.017050862312316895e-01 -1.071321889758110046e-01
7.309866547584533691e-01 -3.783823251724243164e-01 -6.453926116228103638e-02
7.309867143630981445e-01 -3.955869078636169434e-01 -6.073509901762008667e-02
7.309866547584533691e-01 -2.871019840240478516e-01 -1.576028019189834595e-01
7.309866547584533691e-01 -3.083566427230834961e-01 -1.032193675637245178e-01
7.309866547584533691e-01 -3.640831112861633301e-01 -1.249209791421890259e-01
7.309866547584533691e-01 -3.345635235309600830e-01 -3.714014589786529541e-02
7.309866547584533691e-01 -3.206974864006042480e-01 -7.083956897258758545e-02
7.309866547584533691e-01 -4.009900391101837158e-01 -1.410212717019021511e-03
7.309865951538085938e-01 -3.631884455680847168e-01 -3.585561364889144897e-02
7.394852042198181152e-01 -3.654487431049346924e-01 -1.804220825433731079e-01
7.329499721527099609e-01 -2.857714593410491943e-01 -1.804220676422119141e-01
7.398060560226440430e-01 -3.305676281452178955e-01 -1.804220527410507202e-01
7.324787974357604980e-01 -1.896738260984420776e-01 -1.804220676422119141e-01
7.139815688133239746e-01 -4.979459047317504883e-01 -2.873064577579498291e-01
6.888031363487243652e-01 -5.605319142341613770e-01 1.523584574460983276e-01
7.080771327018737793e-01 -3.230619728565216064e-01 1.361390501260757446e-01
7.328343391418457031e-01 -3.139252960681915283e-01 1.353773325681686401e-01
7.177000641822814941e-01 -3.309719562530517578e-01 1.367985010147094727e-01
7.088114023208618164e-01 -3.134243786334991455e-01 1.353355646133422852e-01
6.801075935363769531e-01 -2.985876798629760742e-01 1.340986341238021851e-01
6.486307382583618164e-01 -2.681684195995330811e-01 1.318323314189910889e-01
6.800495982170104980e-01 -2.459631264209747314e-01 1.305116564035415649e-01
6.783461570739746094e-01 -2.429524958133697510e-01 1.303326040506362915e-01
7.215244770050048828e-01 -2.624822258949279785e-01 1.314941495656967163e-01
6.508805155754089355e-01 -2.553241550922393799e-01 1.310684084892272949e-01
6.509715318679809570e-01 -2.443758696317672729e-01 1.304172724485397339e-01
6.449334621429443359e-01 -2.831108570098876953e-01 2.816496416926383972e-02
6.449334621429443359e-01 -2.295483499765396118e-01 3.620623052120208740e-02
6.449334025382995605e-01 -3.098465502262115479e-01 -4.737979173660278320e-02
6.449335217475891113e-01 -2.027055025100708008e-01 1.157499700784683228e-01
6.449334621429443359e-01 -3.668216764926910400e-01 -1.009813472628593445e-01
6.449334621429443359e-01 -2.835437059402465820e-01 2.739604562520980835e-02
6.449334025382995605e-01 -2.933075428009033203e-01 -2.534159831702709198e-02
6.449334621429443359e-01 -2.439845949411392212e-01 2.227214351296424866e-02
6.449334025382995605e-01 -3.003571331501007080e-01 -3.105498850345611572e-02
6.449334621429443359e-01 -3.823727667331695557e-01 -1.150734722614288330e-01
